# .PCD v0.7 - Point Cloud Data file format
VERSION 0.7
FIELDS x y z rgb
SIZE 4 4 4 4
TYPE F F F F
COUNT 1 1 1 1
WIDTH 1019
HEIGHT 1
VIEWPOINT 0 0 0 0 1 0 0
POINTS 1019
DATA ascii
0.055992655 -0.36482045 2.121429 1.2352415e-38
0.12554136 -0.36918321 2.1191998 1.2352052e-38
0.22755265 -0.36563507 2.1235332 1.1892152e-38
-0.029899951 0.030699689 2.1167438 1.4381097e-38
-0.054349214 0.070110485 2.1400001 1.4842787e-38
-0.033417061 0.076121859 2.1221242 1.336729e-38
-0.055125624 0.12577961 2.1399999 1.4566562e-38
-0.031680185 0.12397258 2.1171408 1.3921188e-38
-0.055160593 0.16046682 2.1389999 1.4474368e-38
-0.031466648 0.1758398 2.1197512 1.4381808e-38
-0.054519054 0.23157857 2.1399999 1.4381808e-38
-0.03182067 0.22500473 2.1212468 1.4381809e-38
-0.054155104 0.28300411 2.1400003 1.4380371e-38
-0.033153482 0.27437833 2.1184525 1.4289252e-38
-0.054519054 0.31717858 2.1399999 1.4196699e-38
-0.031853653 0.32526779 2.1230633 1.4196336e-38
-0.052990478 0.3831619 2.1400001 1.3918666e-38
-0.029779095 0.37502944 2.1214139 1.3919029e-38
-0.052990478 0.44022858 2.1400001 1.3458051e-38
-0.031166453 0.42445862 2.1194251 1.3642081e-38
-0.053304035 0.47660074 2.1399999 1.3181463e-38
-0.027892582 0.47509331 2.1179011 1.31811e-38
0 0.46822286 2.1010001 1.3365484e-38
-0.052990478 0.52175242 2.1399999 1.2996348e-38
-0.026956445 0.52378345 2.1142833 1.2996345e-38
-0.052990478 0.56862855 2.1400001 1.2719759e-38
-0.027182361 0.57472879 2.1191642 1.2627561e-38
-0.055028573 0.62977147 2.1400003 1.2350257e-38
-0.028352968 0.6249941 2.1169329 1.2258776e-38
-0.052990478 0.67746288 2.1400001 1.2073666e-38
-0.031928498 0.67243958 2.1193001 1.1982186e-38
-0.052990478 0.72882289 2.1400001 1.1149539e-38
-0.029220631 0.72486091 2.1179655 1.1335372e-38
0 0.74435431 2.1010001 1.1610516e-38
-0.027255012 0.77397811 2.1165791 1.1241732e-38
-0.025240632 0.82496881 2.1194952 1.0965145e-38
0.0020009524 0.84840381 2.1010001 1.0965495e-38
-0.76216793 0.89505953 2.1080911 8.1045568e-39
-0.72688991 0.89281601 2.1096668 8.7488416e-39
-0.65875 0.89200801 2.1153002 9.3945726e-39
-0.62856412 0.89215064 2.1191995 9.762632e-39
-0.57388353 0.89102513 2.1128385 1.0130697e-38
-0.5240044 0.89110047 2.1119318 1.0223969e-38
-0.47397932 0.89016914 2.1186125 1.0131423e-38
-0.4256601 0.89257532 2.116961 9.855199e-39
-0.37461904 0.89183295 2.1201479 9.854113e-39
-0.3247005 0.8933742 2.1226661 9.0250726e-39
-0.27393517 0.89074159 2.1208301 9.8526542e-39
-0.22652009 0.88885772 2.1180737 9.2083624e-39
-0.17435376 0.88806456 2.1249194 9.4853136e-39
-0.12399115 0.88806033 2.1241393 9.4838535e-39
-0.071819194 0.88403624 2.126235 8.8381323e-39
-0.027594915 0.87176454 2.1186702 9.1179773e-39
0.0016007619 0.85560721 2.1010001 1.0963702e-38
-0.88041914 0.90843236 2.1010003 6.1691562e-39
-0.82439238 0.90042859 2.1010001 7.0904245e-39
-0.76157838 0.90125656 2.1082222 8.0123584e-39
-0.73942178 0.90221709 2.1107502 8.6570103e-39
-0.65631241 0.90042859 2.1010001 9.486771e-39
-0.5197143 0.90083814 2.1400001 1.0407637e-38
-0.064900525 -0.76976675 2.1752989 1.3089259e-38
-0.030154994 -0.76509768 2.1680496 1.133754e-38
0.021889145 -0.76333374 2.1719387 1.0876558e-38
0.076484464 -0.76473981 2.1705158 1.0784002e-38
0.12516905 -0.76257044 2.1739287 1.0784362e-38
0.17474788 -0.76361924 2.1711359 1.0784364e-38
0.2254011 -0.76594812 2.1735001 1.0876195e-38
0.25109017 -0.76852512 2.1850002 1.0047882e-38
0.2565082 -0.71457905 2.1861999 1.114632e-38
0.25591239 -0.65629143 2.1670001 1.1239591e-38
-0.016828967 -0.56054056 2.1534827 5.2573103e-39
0.009656297 -0.55759788 2.1693335 3.694309e-39
-0.01289816 -0.52452528 2.1530001 4.9828674e-39
0.0209403 -0.52480525 2.170017 4.6112206e-39
0.056525279 -0.51112658 2.1679232 1.1059509e-38
-0.014439974 -0.47363108 2.1530001 1.0236597e-38
0.019018348 -0.47745052 2.1604133 1.1058788e-38
0.053312384 -0.49621522 2.1530001 1.1342567e-38
-0.016147502 -0.44315919 2.1530001 9.8652813e-39
0.0093542868 -0.44619194 2.1580911 1.1529442e-38
-0.070559643 -0.36914867 2.173224 1.4565482e-38
-0.027070474 -0.36139491 2.1724002 1.2536806e-38
0.02702643 -0.36115608 2.1785417 1.2352774e-38
0.057507962 -0.36110723 2.1819475 1.2260578e-38
0.12622105 -0.36070132 2.1650527 1.2352054e-38
0.15109047 -0.35809046 2.1735001 1.2168741e-38
0.23720765 -0.36252204 2.1606364 1.1891429e-38
0.037611432 -0.34686098 2.194 1.2260937e-38
0.2716381 -0.20268381 2.1940002 1.5765811e-38
0.27372763 -0.19641525 2.194 1.6594852e-38
0.25492191 -0.043880001 2.194 1.3736792e-38
-0.070074752 0.033554353 2.174067 1.4288899e-38
-0.072182842 0.077412635 2.169956 1.4750955e-38
-0.073266685 0.12510398 2.171663 1.4566205e-38
-0.072758391 0.17522223 2.1782131 1.4474369e-38
-0.073757201 0.22462422 2.1781759 1.4381813e-38
-0.070803009 0.27367139 2.1765926 1.4289256e-38
-0.071338914 0.32600868 2.1769235 1.4104505e-38
-0.071205698 0.37367898 2.173455 1.3919392e-38
-0.069778606 0.4251951 2.1733005 1.3642445e-38
-0.049211435 0.41966414 2.1530004 1.3733922e-38
-0.072419405 0.47463161 2.1726744 1.3365494e-38
-0.072484106 0.52576351 2.1749389 1.299635e-38
-0.068614535 0.57514167 2.1732092 1.2719761e-38
-0.049211431 0.59873909 2.1530001 1.2535366e-38
-0.069481924 0.6241768 2.168684 1.2350619e-38
-0.049211431 0.64795047 2.1530001 1.1982904e-38
-0.069209024 0.67350477 2.1699417 1.1982189e-38
-0.049211431 0.65205145 2.1530001 1.1983265e-38
-0.06946367 0.72330451 2.1742322 1.1243179e-38
-0.049211431 0.70536381 2.1530001 1.2075102e-38
-0.066264398 0.77520704 2.1758649 1.1242095e-38
-0.049211431 0.79148388 2.1530001 1.1241019e-38
-0.066464268 0.82474101 2.1746185 1.0780755e-38
-0.048869692 0.82702541 2.1530001 1.0872951e-38
-0.73934323 0.8963511 2.1530001 8.9353979e-39
-0.66565472 0.89662594 2.1784849 9.6711622e-39
-0.62700546 0.89427596 2.1697779 9.7629893e-39
-0.56926787 0.89551663 2.1735778 1.0131054e-38
-0.5253104 0.89634174 2.173697 9.9473862e-39
-0.47826421 0.89373398 2.1723514 1.0315806e-38
-0.42485109 0.89566964 2.176893 1.0499848e-38
-0.37671018 0.89155805 2.1683404 9.8541074e-39
-0.32492504 0.89135331 2.1702428 9.2083778e-39
-0.27675688 0.89075476 2.1709375 9.0265215e-39
-0.22442149 0.89078689 2.177 9.6700608e-39
-0.17384005 0.8863132 2.1693385 9.3923823e-39
-0.12457789 0.88573331 2.1713934 8.9303238e-39
-0.072584219 0.87725049 2.1701133 8.8403016e-39
-0.049211431 0.8550486 2.1530001 1.031941e-38
-0.75047433 0.90220958 2.1530001 9.1187031e-39
-0.72319859 0.90496051 2.1670001 8.7513541e-39
-0.68747747 0.90509713 2.1841249 9.395283e-39
-0.61272591 0.90345311 2.1883125 9.854822e-39
-0.59260589 0.90275556 2.1807778 1.0038855e-38
-0.53562993 0.90241146 2.1614001 1.0039215e-38
-0.45924127 0.9024753 2.1918335 1.0683875e-38
-1.3038514 -0.8789736 2.237 1.2444607e-38
-1.2962053 -0.89056373 2.2331815 1.2443528e-38
-1.2995905 -0.84792948 2.237 1.2628647e-38
-0.10609771 -0.76271051 2.2369998 1.2167308e-38
-0.080077164 -0.76697195 2.2194252 1.2259861e-38
-0.024793584 -0.76052487 2.2220609 1.0785081e-38
0.023118753 -0.75894934 2.221138 1.0784719e-38
0.072194532 -0.76118672 2.2212298 1.0784002e-38
0.12454291 -0.75980937 2.220175 1.0784361e-38
0.17346799 -0.75930995 2.2200453 1.0876198e-38
0.22962029 -0.76414531 2.2224038 1.0599968e-38
0.25349027 -0.75888646 2.2135 9.8627604e-39
-0.10865428 -0.74992764 2.237 1.1429377e-38
0.24511616 -0.71647787 2.2341995 1.1337176e-38
0.25536972 -0.72576505 2.2241561 1.0967676e-38
0.24298167 -0.68842804 2.234333 1.13379e-38
0.2554791 -0.67808717 2.2327776 1.1244979e-38
0.24437945 -0.63457489 2.2313998 1.2258413e-38
0.25352499 -0.64018786 2.2258 1.1613041e-38
0.043081142 -0.55150062 2.2170002 7.4728921e-39
0.055751435 -0.55186862 2.223 1.0507424e-38
0.24465948 -0.5585919 2.2294614 1.1244626e-38
0.25623399 -0.58487296 2.2358332 1.133681e-38
0.04252445 -0.53879881 2.2080002 6.9154051e-39
0.057838481 -0.53710598 2.2110002 1.0322305e-38
0.2433009 -0.53398389 2.2290511 1.1706323e-38
0.2569195 -0.52647632 2.2142501 1.1521557e-38
-0.10338058 -0.36480936 2.2243998 1.4380734e-38
-0.08360634 -0.36122188 2.2106788 1.3458412e-38
-0.016875604 -0.35924709 2.2149231 1.2353493e-38
0.026447382 -0.36198717 2.2227499 1.2260937e-38
0.078334287 -0.36414859 2.223 1.2077262e-38
0.13695498 -0.35773715 2.2214546 1.2351693e-38
0.15243429 -0.35991427 2.223 1.2259857e-38
0.24033046 -0.35951015 2.2293332 1.161376e-38
0.25670543 -0.35784477 2.2276664 1.1154575e-38
0.24457867 -0.33704135 2.2369998 1.189107e-38
0.2570177 -0.32470638 2.223367 1.1799234e-38
0.24684918 -0.28824574 2.2344544 1.2628276e-38
0.25704402 -0.27300927 2.2262855 1.2352408e-38
0.24623767 -0.21153757 2.2348459 1.3090703e-38
0.25721413 -0.22385354 2.2218258 1.2721196e-38
0.24682951 -0.18129456 2.2325451 1.3459483e-38
0.26001251 -0.17610615 2.2232454 1.3090699e-38
0.24361266 -0.12449492 2.2357645 1.3921183e-38
0.25984395 -0.12397499 2.2226193 1.3459484e-38
0.24754083 -0.074989274 2.2334998 1.4105215e-38
0.26008102 -0.072034664 2.2223771 1.3644594e-38
0.24675356 -0.021404304 2.2307775 1.392047e-38
0.25790942 -0.027503436 2.2117224 1.3183981e-38
-0.10378071 0.038318571 2.2352498 1.3644969e-38
-0.094722457 0.033668168 2.2101431 1.4105227e-38
0.2416722 0.001696381 2.2299998 1.5396309e-38
0.25530288 0 2.2155001 1.5208672e-38
-0.10265021 0.077859223 2.2369998 1.4751318e-38
-0.0939245 0.070715241 2.2159288 1.4751318e-38
-0.10771318 0.12944533 2.2305996 1.4566565e-38
-0.093852535 0.12348993 2.2142859 1.4475085e-38
-0.10644462 0.17008322 2.2267499 1.4474016e-38
-0.093686685 0.1810624 2.2105002 1.4474368e-38
-0.10854397 0.22553037 2.2297657 1.4382174e-38
-0.094390757 0.21922965 2.2094288 1.4382175e-38
-0.10985275 0.27524418 2.2256663 1.4289615e-38
-0.093322657 0.27967069 2.2090716 1.4289258e-38
-0.10645424 0.31649521 2.2319596 1.4013391e-38
-0.092735671 0.32641542 2.2156284 1.4013031e-38
-0.10602053 0.37746608 2.2289393 1.3919753e-38
-0.094688319 0.37567899 2.2093639 1.3828277e-38
-0.10819408 0.42828706 2.2282665 1.3551331e-38
-0.093259826 0.42454818 2.2120001 1.3642806e-38
-0.10702296 0.47119841 2.2310605 1.3274024e-38
-0.094875023 0.47436434 2.213625 1.3365857e-38
-0.10612838 0.52780455 2.231281 1.308891e-38
-0.094535485 0.52334136 2.2098751 1.2996713e-38
-0.10842426 0.58107895 2.2320998 1.2720124e-38
-0.092268743 0.57763219 2.2131429 1.2811957e-38
-0.10767133 0.62003201 2.2303681 1.244354e-38
-0.093128659 0.62533832 2.2135713 1.2443176e-38
-0.10555675 0.67791253 2.2314 1.2074391e-38
-0.092811771 0.67627406 2.2088826 1.1982554e-38
-0.10732588 0.72558165 2.2330511 1.1243179e-38
-0.092811771 0.72540122 2.2088826 1.1151343e-38
-0.10512009 0.77045852 2.2329521 1.1150981e-38
-0.090293668 0.77618384 2.2143333 1.1150264e-38
-0.10398956 0.82384181 2.2355261 1.0965505e-38
-0.090716824 0.82366031 2.2147918 1.0872954e-38
-0.70518768 0.8990609 2.237 9.4885604e-39
-0.67348218 0.8956517 2.2206664 9.9481009e-39
-0.62586856 0.89723843 2.2201722 1.0222884e-38
-0.57178414 0.89681202 2.2209198 1.0222894e-38
-0.52161783 0.89729959 2.2221379 1.0315813e-38
-0.49638629 0.89720649 2.2198002 1.0408724e-38
-0.42188644 0.89695978 2.2177999 1.0960819e-38
-0.37271342 0.89516342 2.2229996 9.7637082e-39
-0.32888401 0.89158481 2.2179251 9.3934711e-39
-0.27534276 0.89437252 2.2222431 1.0038129e-38
-0.22443289 0.88927919 2.2191217 9.2069261e-39
-0.17394285 0.89187342 2.2246664 9.2991133e-39
-0.12301941 0.88433379 2.2214999 8.4700659e-39
-0.090020254 0.87594211 2.2189412 8.566251e-39
-0.71123827 0.90753633 2.2212999 9.3963648e-39
-0.68753308 0.90151167 2.2107275 9.8555437e-39
-0.61920339 0.90102166 2.214375 1.0130691e-38
-0.59054857 0.90134692 2.2160001 1.0130696e-38
-0.53821945 0.90237826 2.2284 1.0315454e-38
-0.47689965 0.90330011 2.2232692 1.0408001e-38
-0.42848572 0.90269232 2.2310832 1.0684953e-38
-0.37396604 0.90096551 2.2162859 9.5782365e-39
-1.2771882 -0.90942597 2.2805884 1.2443888e-38
-1.3059108 -0.87068707 2.2653999 1.2444971e-38
-1.2896479 -0.87541342 2.2676475 1.2536448e-38
-1.3116828 -0.82766521 2.280051 1.2904871e-38
-1.2919691 -0.83222795 2.2848768 1.2813033e-38
-0.11375619 -0.80066866 2.2970002 1.4656591e-38
-1.3123534 -0.77280653 2.2772062 1.327366e-38
-1.2942393 -0.77424502 2.2848203 1.3181823e-38
-0.11964134 -0.76525617 2.267225 1.2536088e-38
-0.077444084 -0.75577849 2.2693377 1.1152786e-38
-0.02463535 -0.75644767 2.2694435 1.0784362e-38
0.023958663 -0.758398 2.2744672 1.0600331e-38
0.074802473 -0.75775558 2.2710776 1.0692167e-38
0.12312081 -0.76117438 2.2691388 1.0692167e-38
0.17783722 -0.75997281 2.2724574 1.0508137e-38
0.22068574 -0.75905716 2.2664261 1.0599968e-38
-1.3145723 -0.72413844 2.287333 1.373428e-38
-1.293614 -0.73131752 2.2846487 1.3642085e-38
-0.11055111 -0.746593 2.2613335 1.124534e-38
-0.086323805 -0.74670094 2.266 1.1153146e-38
0.22183076 -0.72720957 2.2726331 1.1245343e-38
-1.3174709 -0.68654305 2.2821386 1.4103063e-38
-1.2833265 -0.689906 2.2970004 1.3918676e-38
0.22625536 -0.67532527 2.2702758 1.1430093e-38
0.25308192 -0.66916573 2.2520001 1.1154225e-38
-1.3104049 -0.61861438 2.2866969 1.4381095e-38
-1.2978823 -0.61358082 2.2797 1.4472574e-38
0.23071548 -0.63515115 2.2683842 1.2258778e-38
-1.3133196 -0.581411 2.2919619 1.4749167e-38
-1.2923135 -0.5731706 2.2960005 1.4841361e-38
0.2258845 -0.57749128 2.2722013 1.1246424e-38
0.2549203 -0.58766484 2.2520001 1.1523002e-38
-1.3124257 -0.52903056 2.2851217 1.5026472e-38
-1.2860111 -0.53237158 2.2897954 1.5026112e-38
0.15206668 -0.51702672 2.2810001 9.7705928e-39
0.22416475 -0.52564108 2.2691293 1.1798518e-38
-1.3124363 -0.46979171 2.2877362 1.5395258e-38
-1.2980924 -0.45598561 2.2924287 1.5395621e-38
-1.3176079 -0.4230656 2.2878711 1.5856234e-38
-1.2869624 -0.43277708 2.2805884 1.5671845e-38
-1.2075658 -0.40689716 2.2970002 1.5765116e-38
-1.3161821 -0.37346804 2.2940001 1.5949512e-38
-1.285836 -0.3676357 2.2939529 1.604099e-38
-0.12220823 -0.37045941 2.2767141 1.4474006e-38
-0.053589333 -0.36217102 2.2690001 1.2536449e-38
-0.044062063 -0.3589505 2.2752504 1.2352774e-38
0.021312254 -0.35988998 2.2692003 1.2260581e-38
0.088314295 -0.36842239 2.2837825 1.2260577e-38
0.12116162 -0.36434978 2.2674289 1.2168377e-38
0.17317818 -0.3639957 2.2702947 1.189215e-38
0.2213631 -0.36354434 2.2734673 1.1523005e-38
-1.3130919 -0.31503099 2.2869604 1.6317936e-38
-1.2812498 -0.31325972 2.2884998 1.6226459e-38
-1.2270398 -0.33802643 2.2878571 1.61339e-38
0.23174882 -0.32426021 2.2740693 1.2167658e-38
0.25522667 -0.32600382 2.2520001 1.2259488e-38
-1.3203601 -0.28145298 2.2910628 1.659488e-38
-1.2804865 -0.29751623 2.2970004 1.6317938e-38
0.23272908 -0.27385107 2.270947 1.2814109e-38
0.25308192 -0.2659505 2.2520001 1.2537522e-38
-1.3134439 -0.21073741 2.2898641 1.6871828e-38
-1.2978282 -0.20770085 2.2844672 1.6871828e-38
0.22650367 -0.2244314 2.2750177 1.3275453e-38
-1.3120921 -0.18250071 2.286207 1.7056217e-38
-1.28529 -0.17517392 2.2838128 1.7056221e-38
0.22468542 -0.1749188 2.2734444 1.3736794e-38
-1.3125131 -0.1238962 2.2905953 1.7333168e-38
-1.2853812 -0.12558866 2.2836282 1.7333167e-38
0.19491963 -0.12876344 2.2842002 1.4105936e-38
0.21964361 -0.12487758 2.2752488 1.4105577e-38
-1.3136384 -0.082484365 2.2926753 1.7610112e-38
-1.2891102 -0.08444465 2.2861784 1.7518277e-38
0.22581847 -0.075659856 2.2706437 1.4382884e-38
-1.3109243 -0.024584502 2.2868629 1.8070736e-38
-1.2964649 -0.0093364632 2.2879288 1.8163293e-38
0.19688573 -0.0087504778 2.2970004 1.4290693e-38
0.22315179 -0.026296977 2.2729082 1.4290693e-38
-1.3107065 0.025123661 2.2812817 1.8348042e-38
-1.2871455 0.013708989 2.2828774 1.8255845e-38
-1.1944401 0.010938097 2.2970002 1.825549e-38
-0.15500847 0.040627211 2.2970002 1.355097e-38
-0.12639156 0.034531087 2.2714455 1.4012678e-38
0.19688572 0 2.2970002 1.4565482e-38
0.22446606 0 2.2663333 1.5394518e-38
-1.3112659 0.074839778 2.2876577 1.8440596e-38
-1.2913591 0.076649435 2.2825918 1.8440597e-38
-1.2163162 0.061253335 2.2970002 1.853243e-38
-0.15313333 0.071097627 2.2970002 1.4750959e-38
-0.12698705 0.075013623 2.2656598 1.4659482e-38
-1.3115923 0.12051133 2.2839994 1.7150219e-38
-1.2740432 0.12468939 2.2754619 1.6872913e-38
-1.2444625 0.14317441 2.2878571 1.6780356e-38
-0.15380648 0.12957437 2.2970006 1.4475092e-38
-0.13232246 0.12330706 2.2695465 1.4475088e-38
-1.2600687 0.15532096 2.2970002 1.7148411e-38
-1.2404296 0.15423906 2.2810001 1.742392e-38
-0.13014324 0.17573278 2.26946 1.4382894e-38
-0.15313333 0.21219906 2.2970002 1.4382174e-38
-0.13277492 0.22435431 2.2692618 1.4474009e-38
-0.15313333 0.26688954 2.2970002 1.4289984e-38
-0.13416266 0.27381876 2.2701843 1.4197782e-38
-0.1288324 0.32720664 2.2692316 1.4104866e-38
-0.15313333 0.360228 2.2970004 1.4013031e-38
-0.13057637 0.37356585 2.2704377 1.3920115e-38
-0.15313333 0.434607 2.2970004 1.3643531e-38
-0.13295081 0.42361432 2.2702708 1.3735003e-38
-0.15532097 0.46705672 2.2970004 1.3734286e-38
-0.13193074 0.47570157 2.2674325 1.3458056e-38
-0.15313333 0.54034197 2.2970002 1.3272942e-38
-0.13006847 0.52313894 2.2666197 1.3181105e-38
-0.15375839 0.57596892 2.2970004 1.2904884e-38
-0.132126 0.57313406 2.2675166 1.2904521e-38
-0.15313333 0.61953372 2.2970002 1.2627931e-38
-0.13253091 0.62744474 2.2680001 1.2443539e-38
-0.15459175 0.67232835 2.2970004 1.2442454e-38
-0.12889521 0.67451978 2.2693615 1.2074751e-38
-0.13150164 0.72723979 2.2745845 1.1151704e-38
-0.12849048 0.77484411 2.2705686 1.1150618e-38
-0.12320583 0.82403868 2.2695003 1.0873674e-38
-0.71770209 0.89798671 2.2754002 9.3967249e-39
-0.67564005 0.89621872 2.2743886 9.7640669e-39
-0.61643809 0.89692903 2.269706 1.0040658e-38
-0.57708538 0.8974123 2.2670588 1.0316158e-38
-0.52064681 0.89564073 2.2757139 1.0592033e-38
-0.49533761 0.89785284 2.2662501 1.0316163e-38
-0.41125986 0.89600706 2.2774999 1.1052646e-38
-0.37475681 0.89299726 2.2653956 1.0131406e-38
-0.32582921 0.89702564 2.2663596 1.0038838e-38
-0.27588159 0.89635044 2.2718768 9.4856682e-39
-0.22398534 0.89598572 2.2784142 8.9310538e-39
-0.17225836 0.89236373 2.2764673 8.3768039e-39
-0.12639661 0.87562376 2.2682984 8.4747729e-39
-0.098659046 0.88578671 2.2520001 9.306323e-39
-0.72545171 0.9057278 2.2750647 9.3963676e-39
-0.66990292 0.90206093 2.2761853 9.856264e-39
-0.62584633 0.90261477 2.2686048 1.0040296e-38
-0.57223105 0.90250093 2.2696567 1.0316159e-38
-0.52802718 0.9022752 2.2698376 1.0316167e-38
-0.47241539 0.90552616 2.2690518 1.0684591e-38
-0.42814347 0.90571821 2.2738457 1.0868985e-38
-0.38104957 0.90176439 2.2745001 9.9473736e-39
-0.32351792 0.90215904 2.2829201 1.0406185e-38
-0.26746741 0.90151143 2.27425 9.3923879e-39
-0.23514588 0.90261316 2.2924287 9.022895e-39
-0.18380088 0.90138352 2.258364 9.1143591e-39
-1.3040626 -0.91303968 2.3195004 1.2352056e-38
-1.272915 -0.91201794 2.327667 1.2444246e-38
-1.2278438 -0.91544366 2.3430002 1.2443892e-38
-1.3032831 -0.88862866 2.3209999 1.2628636e-38
-1.2767035 -0.87297243 2.3221765 1.2628643e-38
-1.2049716 -0.86356288 2.3430002 1.2720483e-38
-1.3113469 -0.82115358 2.3184762 1.3088545e-38
-1.2786878 -0.82529742 2.3314412 1.299671e-38
-1.238004 -0.82087392 2.3388629 1.2996708e-38
-0.1255143 -0.80885583 2.3295717 1.4933901e-38
-1.3431619 -0.75305146 2.312 1.3733203e-38
-1.2774295 -0.77650505 2.3317282 1.3273657e-38
-1.2301003 -0.78401875 2.3338242 1.3089628e-38
-1.1967429 -0.78896385 2.3270001 1.3089627e-38
-0.16245849 -0.77523524 2.3353343 1.3458414e-38
-0.12992294 -0.76342744 2.3239315 1.1614137e-38
-0.073235698 -0.75565374 2.326853 1.0692892e-38
-0.027041534 -0.75924468 2.3333333 1.0692169e-38
0.024413006 -0.75989908 2.3310225 1.0508497e-38
0.074004829 -0.76090336 2.330559 1.0600332e-38
0.12649176 -0.76437902 2.3294194 1.0692165e-38
0.17242968 -0.75977099 2.3285203 1.0323383e-38
-1.3166747 -0.72098494 2.3145001 1.3734643e-38
-1.2757045 -0.72467327 2.3238604 1.3734282e-38
-1.2384672 -0.71556836 2.3419998 1.3642448e-38
-0.15287939 -0.74953079 2.337667 1.0231551e-38
-0.14256763 -0.74958813 2.3390002 9.4965142e-39
-0.080786027 -0.74916011 2.3273335 1.0508865e-38
0.18474616 -0.72526181 2.332773 1.1061308e-38
0.20383348 -0.71750647 2.312 1.1245337e-38
-1.3192931 -0.6705305 2.3180499 1.4195623e-38
-1.2751613 -0.67320716 2.3256779 1.4103069e-38
-1.2401884 -0.67391777 2.3388529 1.4010874e-38
-1.1890328 -0.66177797 2.3430002 1.4286382e-38
-0.18320028 -0.66362697 2.3429997 1.6133169e-38
0.18440093 -0.67317384 2.3393879 1.0969837e-38
0.20658074 -0.66424263 2.322185 1.1522293e-38
-1.3121027 -0.62951654 2.3179994 1.4380734e-38
-1.2759807 -0.62388998 2.3263731 1.4472571e-38
-1.2340419 -0.6184513 2.3334501 1.4380739e-38
-1.1842626 -0.61979139 2.327826 1.4472208e-38
-0.18297715 -0.62480009 2.3430002 1.6133533e-38
0.19040187 -0.62621564 2.3401287 1.0877638e-38
0.20752694 -0.63268405 2.3338945 1.2166582e-38
-1.3175117 -0.57590985 2.3137429 1.4749525e-38
-1.2761519 -0.57537425 2.3247004 1.4749523e-38
-1.23171 -0.57441312 2.329627 1.465733e-38
-1.1870605 -0.56901127 2.3404396 1.4840642e-38
-0.1785143 -0.59802294 2.3430002 1.7055129e-38
0.18757953 -0.57319832 2.331758 1.106275e-38
0.20428783 -0.57176131 2.312 1.1247142e-38
-1.3199866 -0.51345056 2.3153746 1.5118669e-38
-1.2749051 -0.52139717 2.3276031 1.5118308e-38
-1.2278476 -0.53000617 2.3336904 1.5026112e-38
-1.1936141 -0.53136432 2.3269999 1.5209422e-38
-0.17414413 -0.51580364 2.3425429 1.7332076e-38
0.18110795 -0.52421939 2.3304267 1.1430094e-38
0.20404318 -0.52405334 2.3120003 1.2075468e-38
-1.3171777 -0.48244584 2.3184252 1.5303419e-38
-1.2774477 -0.47401002 2.3275609 1.5395255e-38
-1.2387937 -0.47659382 2.3391595 1.5395614e-38
-1.1904325 -0.48653758 2.3291333 1.5394536e-38
-0.1714797 -0.47422004 2.3428059 1.7239881e-38
0.17380437 -0.49537188 2.3399997 1.5023916e-38
-1.3184867 -0.42485923 2.3183832 1.5856233e-38
-1.2781336 -0.42741033 2.3228097 1.5764037e-38
-1.2281638 -0.41770127 2.3255553 1.5764398e-38
-0.17405142 -0.43459728 2.3430004 1.7055478e-38
-1.3166367 -0.37451041 2.3176873 1.6041346e-38
-1.275839 -0.37371632 2.323458 1.6041346e-38
-1.2256935 -0.38460147 2.3365414 1.5948793e-38
-1.1967429 -0.3856172 2.3270001 1.6040986e-38
-0.16853218 -0.37149575 2.3309662 1.6040977e-38
-0.14171195 -0.37213928 2.3249614 1.4103789e-38
-0.056265406 -0.36280069 2.3323336 1.2352417e-38
-0.037675239 -0.35902289 2.3270001 1.2076909e-38
0.092106394 -0.36645281 2.3340003 1.2076187e-38
0.10264572 -0.37041715 2.3430002 1.2168018e-38
0.1815642 -0.35630259 2.3250568 1.1338256e-38
0.20945852 -0.35857612 2.3178334 1.1614117e-38
-1.3176816 -0.33171946 2.3194308 1.6226097e-38
-1.2765381 -0.33081806 2.3223655 1.6226099e-38
-1.2326009 -0.31975648 2.3319256 1.6226099e-38
-0.1700183 -0.32834858 2.3383694 1.6964011e-38
-0.14392716 -0.34029287 2.3430002 1.2998136e-38
0.18802746 -0.32352713 2.3337398 1.2075823e-38
0.20858493 -0.32579514 2.3140264 1.2167658e-38
-1.3191218 -0.27484843 2.3211987 1.6594523e-38
-1.2805011 -0.27655971 2.3293128 1.6503046e-38
-1.2327775 -0.29280686 2.3376665 1.6502684e-38
-0.17038257 -0.27130827 2.3391094 1.8162917e-38
-0.14370401 -0.25706062 2.3430002 1.8808285e-38
0.18586355 -0.27371502 2.3335066 1.2814116e-38
0.21048659 -0.27509475 2.3155284 1.2814114e-38
-1.3185084 -0.23290712 2.3242896 1.6687797e-38
-1.2779876 -0.22844787 2.3265083 1.6687438e-38
-1.2355522 -0.21778275 2.3383245 1.6779993e-38
-1.1737314 -0.23653144 2.3430002 1.6687441e-38
-0.16979809 -0.22549763 2.3405395 1.8347313e-38
-0.14013372 -0.24010172 2.3430002 1.8900481e-38
0.18631811 -0.22811665 2.3336158 1.3091786e-38
0.20609829 -0.23692493 2.312 1.3091786e-38
-1.313795 -0.17336364 2.3136058 1.7148058e-38
-1.2798024 -0.17379697 2.3213112 1.7056221e-38
-1.2185321 -0.1848952 2.3383546 1.6964028e-38
-1.1831428 -0.17734666 2.338294 1.705622e-38
-0.1734293 -0.16439976 2.3408949 1.7610114e-38
0.18566272 -0.17215264 2.3303928 1.3645319e-38
0.20393026 -0.1731036 2.3120003 1.3829347e-38
-1.3270147 -0.12330668 2.312 1.7149854e-38
-1.2757506 -0.12313934 2.3341954 1.7333169e-38
-1.2282357 -0.12069135 2.3412509 1.7333169e-38
-1.1786903 -0.13289398 2.3430002 1.7332449e-38
-0.16882318 -0.12350427 2.3378007 1.8347676e-38
-0.1472743 -0.10487714 2.3430002 1.9177068e-38
0.181638 -0.12420724 2.3289475 1.4014103e-38
0.20257525 -0.14752761 2.312 1.3830791e-38
-1.3184288 -0.060009629 2.3193903 1.7702672e-38
-1.2767264 -0.075859115 2.3287356 1.7610116e-38
-1.2364998 -0.075622909 2.3365145 1.7610115e-38
-0.16891611 -0.076296508 2.3430011 1.8532783e-38
-0.1429974 -0.070104055 2.3429995 1.9454015e-38
0.18230838 -0.076482013 2.3320413 1.4382885e-38
0.20404318 -0.07075455 2.312 1.438289e-38
-1.3111596 -0.036421571 2.3193038 1.7887061e-38
-1.2818797 -0.025163602 2.3297567 1.7979259e-38
-1.2347037 -0.033421151 2.3405998 1.7886703e-38
-0.16627665 -0.032544829 2.3403342 1.7980687e-38
-0.14402857 -0.038137145 2.3430004 1.807361e-38
0.18325175 -0.027607027 2.3292906 1.4291053e-38
0.20257525 -0.034601361 2.312 1.4475084e-38
-1.3130585 0.033113498 2.3178337 1.8440236e-38
-1.2750154 0.024739625 2.3208494 1.8255849e-38
-1.219842 0.031202367 2.3289545 1.8348043e-38
-1.1941966 0.01984394 2.3272669 1.8255487e-38
-0.17100194 0.023162894 2.3318775 1.6319731e-38
-0.13768253 0.016846167 2.3251905 1.7519721e-38
0.17949334 0.0022185035 2.3272858 1.4750232e-38
0.21138287 0 2.312 1.4659115e-38
-1.3262831 0.082614206 2.3160911 1.8440596e-38
-1.2776417 0.075180493 2.3257675 1.844024e-38
-1.2237724 0.060720727 2.3264742 1.8440239e-38
-1.1960459 0.053554289 2.3430002 1.8439521e-38
-0.16927008 0.076473854 2.3242273 1.5119743e-38
-1.3336204 0.12037081 2.3120003 1.7333528e-38
-1.2635591 0.11825902 2.315767 1.7242056e-38
-1.2350562 0.12887464 2.3275001 1.668888e-38
-0.1697605 0.12334306 2.3242149 1.5027188e-38
-0.1678209 0.1770975 2.3212624 1.4934633e-38
-0.14972952 0.18495999 2.312 1.4382897e-38
-0.16761672 0.22581215 2.322376 1.4750599e-38
-0.14972952 0.22899809 2.312 1.4566206e-38
-0.16819851 0.27382165 2.3256445 1.4657684e-38
-0.14972952 0.28184381 2.312 1.4197784e-38
-0.16704047 0.32447609 2.3280001 1.447401e-38
-0.14972952 0.32918477 2.312 1.4104878e-38
-0.16873969 0.37529796 2.3226833 1.4288902e-38
-0.14972952 0.38753527 2.312 1.3920116e-38
-0.16931152 0.42336628 2.3261392 1.4011597e-38
-0.1726937 0.47394091 2.3251538 1.3642809e-38
-0.16903944 0.52703875 2.3244472 1.3274025e-38
-0.14972952 0.51304382 2.312 1.3365855e-38
-0.17165668 0.57389188 2.3262084 1.2997078e-38
-0.16645698 0.6242727 2.3248365 1.2720127e-38
-0.16603945 0.67219806 2.3225567 1.2350983e-38
-0.14972952 0.69580191 2.312 1.2166585e-38
-0.16904472 0.72484684 2.3247104 1.1243904e-38
-0.14803573 0.72086978 2.3120003 1.1244633e-38
-0.16586232 0.77279735 2.3230486 1.1334296e-38
-0.14972952 0.78241014 2.3120003 1.1242461e-38
-0.16137555 0.82197964 2.3296063 1.0874038e-38
-0.1459548 0.82854521 2.312 1.0782203e-38
-0.75350481 0.89977342 2.3270001 9.0272138e-39
-0.72708756 0.8992151 2.3210001 9.5796799e-39
-0.67523235 0.89492971 2.3205998 1.0132135e-38
-0.63771647 0.8993746 2.3227143 1.0408e-38
-0.55888194 0.89907539 2.3195 1.0869337e-38
-0.53241736 0.89873534 2.319 1.0777141e-38
-0.45407686 0.89930809 2.3220003 1.0408727e-38
-0.42298055 0.89773589 2.3263717 1.0224695e-38
-0.37300584 0.89892352 2.32025 9.6707909e-39
-0.32314196 0.89772606 2.3250287 9.946282e-39
-0.27287641 0.89572448 2.324708 9.7622508e-39
-0.22860904 0.89184111 2.3236179 9.5764134e-39
-0.16734529 0.87934124 2.328181 9.3027399e-39
-0.14532571 0.86434764 2.3120003 1.0320133e-38
-0.75422293 0.90149719 2.3430002 9.5793155e-39
-0.72413015 0.90465063 2.3225307 9.5800386e-39
-0.66306204 0.90427923 2.3224738 1.0039932e-38
-0.62699574 0.90513003 2.3252671 1.0315809e-38
-0.57991391 0.90551758 2.3198278 1.0500913e-38
-0.51597208 0.9046585 2.3235002 1.059239e-38
-0.47337604 0.90682423 2.3226964 1.05924e-38
-0.43583536 0.90420061 2.321059 1.0684953e-38
-0.37942809 0.9026342 2.3351874 9.763704e-39
-0.32413229 0.90260756 2.3197145 1.022323e-38
-0.26643047 0.90278101 2.312 9.6700552e-39
-0.20594922 0.90325594 2.3170002 8.8377904e-39
-0.18967143 0.90149719 2.3430002 9.0236068e-39
-1.2604115 -0.95040005 2.3760002 1.2352058e-38
-1.2132115 -0.95287323 2.3856003 1.253465e-38
-1.2645534 -0.92427278 2.3668466 1.2443892e-38
-1.2218482 -0.92196697 2.3709166 1.2535727e-38
-1.1898664 -0.92060596 2.3916585 1.2443892e-38
-1.1253791 -0.90212578 2.3920002 1.2627564e-38
-0.21251193 -0.92278218 2.3881896 1.2351693e-38
-0.17381366 -0.91829181 2.372061 1.4472559e-38
-0.1291111 -0.91978449 2.3914061 1.4564753e-38
-1.2623594 -0.88212794 2.3674138 1.2628642e-38
-1.2224599 -0.87575233 2.3718586 1.2720123e-38
-1.1772057 -0.87019145 2.3869135 1.2812314e-38
-0.20884804 -0.87319082 2.3895378 1.2903787e-38
-0.17581742 -0.87521231 2.3731394 1.4841703e-38
-0.12677184 -0.87308097 2.3862565 1.5026093e-38
-1.2728974 -0.836402 2.3590002 1.2812677e-38
-1.2181791 -0.82858795 2.3710527 1.299671e-38
-1.1870556 -0.82987481 2.3864088 1.2996351e-38
-1.1134191 -0.81726664 2.3920002 1.2995995e-38
-0.21155985 -0.82354671 2.3872719 1.290487e-38
-0.17805475 -0.8259024 2.3685331 1.5302325e-38
-0.13323447 -0.83512276 2.3775775 1.5579987e-38
-1.2631932 -0.76207626 2.3621881 1.3458051e-38
-1.2278464 -0.77080888 2.3756421 1.3273661e-38
-1.1815875 -0.77435124 2.3817594 1.3365135e-38
-1.1401867 -0.79163814 2.3920002 1.3363697e-38
-1.0775391 -0.788221 2.3920002 1.2997426e-38
-0.21124685 -0.77760625 2.3887992 1.3273292e-38
-0.18448618 -0.76977372 2.3688421 1.391866e-38
-0.12045633 -0.75363052 2.3743849 1.0507414e-38
-0.073886186 -0.75593859 2.3784823 1.0324108e-38
-0.028968621 -0.7578907 2.3773248 1.0415944e-38
0.025029082 -0.76069635 2.3767669 1.032447e-38
0.076158836 -0.76165479 2.378324 1.0508134e-38
0.12765373 -0.7602399 2.3803148 1.0139712e-38
0.15687685 -0.75327015 2.364584 1.0323027e-38
-1.2618779 -0.73790526 2.3590007 1.3550249e-38
-1.2268571 -0.72414762 2.3753259 1.3642449e-38
-1.1873537 -0.72807598 2.3803144 1.3733923e-38
-1.120823 -0.73810291 2.3920002 1.3549889e-38
-1.0796869 -0.71297866 2.3919992 1.3733919e-38
-0.21256034 -0.72086185 2.383666 1.3550242e-38
-0.17534558 -0.72341257 2.3690345 1.4656593e-38
-0.12550259 -0.7256512 2.3877022 1.1522656e-38
-0.095029123 -0.71792549 2.3920002 1.1062036e-38
-0.043283813 -0.74721527 2.3920002 9.7720109e-39
0.14067239 -0.74322861 2.3920002 1.0508133e-38
0.15966053 -0.72412544 2.3783996 1.0969116e-38
-1.2630352 -0.66378802 2.3590004 1.4195624e-38
-1.2242855 -0.6758191 2.36254 1.4103069e-38
-1.1798024 -0.67163342 2.3793397 1.4103427e-38
-1.1215823 -0.6591289 2.3920002 1.4103073e-38
-1.0809562 -0.69595814 2.3920002 1.3734641e-38
-0.21005471 -0.67348492 2.3835783 1.4010503e-38
-0.17345925 -0.67414731 2.3640099 1.5855504e-38
-0.12643172 -0.67414176 2.3831556 1.3459131e-38
-0.094161272 -0.65457273 2.3920002 1.2077633e-38
0.1389638 -0.67260772 2.3920002 1.1337539e-38
0.15988229 -0.67405647 2.3824794 1.0876919e-38
-1.2608421 -0.6370334 2.3646674 1.4380376e-38
-1.2262136 -0.62508982 2.3649414 1.4472213e-38
-1.179092 -0.62678665 2.3814967 1.4472214e-38
-1.1409616 -0.63120776 2.3909333 1.4471851e-38
-1.0929601 -0.60192007 2.3760002 1.4564767e-38
-0.20948687 -0.62264138 2.3876357 1.4195614e-38
-0.1758883 -0.62621957 2.3694849 1.6132449e-38
-0.12471604 -0.62406749 2.3806443 1.5302321e-38
-0.083833911 -0.62298322 2.3920004 1.0691837e-38
-0.04556191 -0.62191999 2.3920002 7.8434557e-39
0.17249015 -0.6380583 2.3686366 9.9574882e-39
0.20220003 -0.63356006 2.3590002 9.0377221e-39
-1.2752081 -0.56256539 2.3590002 1.4933919e-38
-1.2243706 -0.57496774 2.371856 1.4749524e-38
-1.1892473 -0.57836884 2.3855889 1.4749523e-38
-1.1042743 -0.5951314 2.3760002 1.4656246e-38
-1.0908573 -0.58202922 2.3813338 1.4656602e-38
-0.21046977 -0.57178104 2.3869467 1.4380009e-38
-0.17663184 -0.5761885 2.3692019 1.6409398e-38
-0.12456555 -0.57460845 2.3834047 1.6409393e-38
-0.088997588 -0.57681382 2.3920004 1.4380013e-38
-0.04556191 -0.59458292 2.3920002 9.4111527e-39
0.17074667 -0.5684067 2.3590002 1.0878714e-38
-1.2681504 -0.51332921 2.3680313 1.5210506e-38
-1.2195759 -0.5178923 2.3668053 1.5210145e-38
-1.1891409 -0.53086901 2.3832195 1.5209786e-38
-1.1086731 -0.52092451 2.3920002 1.5210141e-38
-1.0929796 -0.53307432 2.3920002 1.5026108e-38
-0.21034048 -0.52380586 2.3850803 1.4565119e-38
-0.17522405 -0.5301826 2.3625321 1.6409756e-38
-0.12476808 -0.52476144 2.3830397 1.6408673e-38
-0.09437824 -0.52754188 2.3920002 1.6040249e-38
0.14432383 -0.51672387 2.3866663 1.1431531e-38
0.15524854 -0.52369457 2.3687651 1.1338621e-38
-1.2620492 -0.47833425 2.3628392 1.5395258e-38
-1.2272967 -0.47271156 2.3776886 1.5395258e-38
-1.1751378 -0.47246569 2.3903701 1.5395256e-38
-1.1367695 -0.47412866 2.3920002 1.5394898e-38
-0.21350291 -0.4739694 2.3855989 1.4658032e-38
-0.18028092 -0.47765979 2.3644259 1.5856583e-38
-0.12684423 -0.47425902 2.3801615 1.6778171e-38
-0.066824138 -0.47603759 2.3919995 1.5117927e-38
-0.04556191 -0.48751244 2.3920002 1.4197044e-38
0.14603335 -0.49426669 2.3590002 1.1062406e-38
0.15502003 -0.49651337 2.3590002 1.3270762e-38
-1.2665862 -0.4217515 2.3628964 1.5856233e-38
-1.2267206 -0.42668632 2.3837657 1.5764399e-38
-1.1764587 -0.42295033 2.3863454 1.5764396e-38
-1.1308465 -0.42008081 2.3920002 1.5855876e-38
-1.0816457 -0.44352004 2.3760002 1.6039178e-38
-0.21431896 -0.42505145 2.3860333 1.4842426e-38
-0.1756884 -0.42092639 2.364594 1.7055845e-38
-0.12537964 -0.42805341 2.376775 1.6962927e-38
-0.095173754 -0.43030691 2.3920002 1.6502656e-38
-1.2652047 -0.37125593 2.3691862 1.6041345e-38
-1.2197828 -0.36977777 2.3797388 1.6133181e-38
-1.1813251 -0.38038838 2.3866246 1.5857316e-38
-1.1495316 -0.38016003 2.3760002 1.5949152e-38
-0.21126837 -0.37684038 2.3857553 1.4842785e-38
-0.19054082 -0.37879068 2.3646674 1.530341e-38
-0.12187905 -0.36668196 2.3711283 1.2444971e-38
-0.077867828 -0.36345455 2.3815889 1.1891797e-38
-0.040739432 -0.35814255 2.3772004 1.1616286e-38
0.011846096 -0.37178516 2.3920002 1.2077266e-38
0.090093337 -0.36483431 2.3646669 1.1983996e-38
0.12757334 -0.36762765 2.3920002 1.1615213e-38
0.15691887 -0.35789922 2.3814499 1.1338615e-38
-1.2720391 -0.31660029 2.3631759 1.6318294e-38
-1.2239052 -0.32549834 2.3751752 1.6317936e-38
-1.1795367 -0.31949392 2.389616 1.6318294e-38
-1.1399589 -0.32622328 2.3920002 1.6133906e-38
-0.2108818 -0.3217521 2.3881896 1.4934983e-38
-0.18145713 -0.31803191 2.3660004 1.5948779e-38
-0.12509337 -0.32454783 2.370985 1.3275819e-38
-0.087796755 -0.32476738 2.3895376 1.2445691e-38
0.14579812 -0.33715814 2.3920002 1.1707402e-38
0.16251686 -0.32523805 2.3760681 1.1891794e-38
-1.2655369 -0.27012759 2.3653622 1.6594883e-38
-1.2248398 -0.27438751 2.3790345 1.6594883e-38
-1.186982 -0.27101845 2.3863325 1.650269e-38
-0.21082355 -0.27421495 2.3863778 1.4935705e-38
-0.18090348 -0.28142399 2.3652198 1.6502672e-38
-0.1235619 -0.27728346 2.3761814 1.5396694e-38
-0.087018847 -0.26850146 2.3916724 1.3921916e-38
0.14245853 -0.26127964 2.3881595 1.2722641e-38
0.16148134 -0.27815947 2.3732908 1.253825e-38
-1.2755933 -0.21324106 2.3632507 1.6779994e-38
-1.2219055 -0.22973639 2.3771911 1.6779633e-38
-1.1888882 -0.2219674 2.3888564 1.6779275e-38
-0.21218196 -0.22409181 2.3879991 1.5119736e-38
-0.18593816 -0.22453132 2.3639216 1.5949135e-38
-0.12583309 -0.22548003 2.3721991 1.7609746e-38
-0.085099034 -0.22762269 2.3887992 1.4659849e-38
0.1424845 -0.23692192 2.3920002 1.3090707e-38
0.16204934 -0.22201431 2.3756294 1.3183622e-38
-1.2677058 -0.17792672 2.3642302 1.6964387e-38
-1.2294197 -0.16930269 2.3730578 1.7056224e-38
-1.1802959 -0.17518924 2.3782144 1.705622e-38
-1.1458001 -0.15277335 2.3590002 1.7240609e-38
-0.21223867 -0.17236981 2.387162 1.5119739e-38
-0.17564143 -0.17979947 2.3612518 1.7517547e-38
-0.12491318 -0.17542106 2.3758316 1.8623896e-38
-0.086876124 -0.17636842 2.390425 1.5674e-38
0.14579812 -0.15491049 2.3920002 1.3645323e-38
0.16141593 -0.1782995 2.3751142 1.364496e-38
-1.2777319 -0.12762977 2.3590009 1.7240977e-38
-1.2228943 -0.1278169 2.3655734 1.7333169e-38
-1.1863594 -0.12729089 2.3813818 1.7332811e-38
-0.21463227 -0.12545678 2.3837161 1.51201e-38
-0.18522252 -0.12841177 2.3643906 1.5857662e-38
-0.12510489 -0.1255659 2.375447 1.8808284e-38
-0.081239089 -0.12148194 2.3876042 1.7240597e-38
0.14577189 -0.13110773 2.3875554 1.3830073e-38
0.15657642 -0.12457281 2.3671222 1.410594e-38
-1.3210402 -0.053920005 2.3590002 1.7795222e-38
-1.2704901 -0.089866675 2.3590002 1.7609755e-38
-1.2208501 -0.073617719 2.376797 1.7610116e-38
-1.1879323 -0.069704369 2.3880806 1.7701952e-38
-1.1481601 -0.056952387 2.3920002 1.770232e-38
-0.2142705 -0.075975582 2.3853786 1.5028263e-38
-0.18360391 -0.075916916 2.3650215 1.5950221e-38
-0.12135881 -0.077721022 2.3697524 1.9269262e-38
-0.080306426 -0.072907075 2.3903811 1.8531334e-38
0.144868 -0.073156267 2.3887994 1.4290695e-38
0.15721025 -0.072771922 2.3667321 1.4290694e-38
-1.2683576 -0.02503619 2.3641517 1.7978902e-38
-1.2263383 -0.025369244 2.3792949 1.79789e-38
-1.181893 -0.024763819 2.3855999 1.7887065e-38
-1.1481601 -0.04556191 2.3920002 1.7609763e-38
-0.20986381 -0.029710367 2.3846853 1.5027907e-38
-0.18312453 -0.021257415 2.3634591 1.6411562e-38
-0.12446338 -0.025932517 2.3704369 2.0191577e-38
-0.083774641 -0.025357461 2.3843815 1.9638041e-38
0.14352003 -0.030754289 2.3920002 1.419922e-38
0.15831041 -0.026080759 2.3738112 1.4291053e-38
-1.260462 0.010319226 2.36026 1.8255486e-38
-1.2216121 0.012474068 2.3685148 1.8255487e-38
-1.189587 0.023415493 2.3781531 1.8255846e-38
-0.20998225 0.019354561 2.3860564 1.4935353e-38
-0.18761355 0.021399107 2.3637228 1.5672919e-38
-0.12188564 0.0065171444 2.3679476 2.0469246e-38
-0.075148448 0.0080689238 2.3848143 1.8993759e-38
-0.046617147 0.011360001 2.3880002 1.7426074e-38
0.14352001 0.0022780953 2.3920002 1.4474375e-38
0.15722561 0.0020112169 2.3738892 1.4474369e-38
-1.2593832 0.085603349 2.3654485 1.8440597e-38
-1.2216415 0.081953362 2.3746054 1.84406e-38
-1.1869789 0.075810172 2.3887682 1.8532076e-38
-0.21482031 0.076861829 2.3848116 1.1247522e-38
-0.19262183 0.076608442 2.3667276 1.4289623e-38
-1.2590425 0.10965514 2.3658006 1.7980339e-38
-1.2218081 0.12145455 2.3779697 1.7241697e-38
-1.1882812 0.11770646 2.3897135 1.7519005e-38
-1.1481601 0.13212954 2.3920002 1.6133547e-38
-0.21161021 0.12370571 2.3890517 1.4474729e-38
-0.19320838 0.12780315 2.3679726 1.4474731e-38
-1.1800535 0.15263239 2.3920002 1.7056577e-38
-0.21152817 0.17357412 2.3898656 1.4566931e-38
-0.19291916 0.17285794 2.3675003 1.4474373e-38
-0.2090608 0.22178328 2.3905873 1.4474375e-38
-0.19138163 0.22622766 2.3677299 1.4290341e-38
-0.20940903 0.27567905 2.3849995 1.4381818e-38
-0.19153906 0.27886635 2.3613617 1.4197784e-38
-0.20945691 0.32335234 2.3817773 1.4289618e-38
-0.19112575 0.3263225 2.3602448 1.4105228e-38
-0.20939109 0.37389469 2.386322 1.4196703e-38
-0.19306783 0.37460187 2.3643689 1.3920474e-38
-0.20821647 0.42566782 2.3870339 1.4011593e-38
-0.19370863 0.4305566 2.3668933 1.3827199e-38
-0.21003817 0.4767049 2.3872426 1.3643171e-38
-0.19414382 0.47469568 2.366286 1.3459138e-38
-0.21198541 0.52475441 2.3879366 1.3458058e-38
-0.19188139 0.52169275 2.3681221 1.3182188e-38
-0.21275616 0.57397157 2.3827653 1.3181471e-38
-0.19409014 0.57808584 2.3615193 1.3089268e-38
-0.20711343 0.62399656 2.3825452 1.2996358e-38
-0.19043094 0.62698448 2.3676891 1.2812318e-38
-0.20686652 0.6785273 2.3889225 1.2351706e-38
-0.19106306 0.67469531 2.3697176 1.2443176e-38
-0.20844921 0.72500795 2.3823664 1.133646e-38
-0.19342917 0.72065294 2.3632505 1.1428657e-38
-0.20691255 0.77426988 2.3898177 1.1427216e-38
-0.19053018 0.77813256 2.367703 1.1335374e-38
-0.20357057 0.82521725 2.3919995 1.1150266e-38
-0.18336961 0.82740074 2.3697274 1.1058068e-38
-0.76601267 0.89798105 2.3796251 9.0272278e-39
-0.74206102 0.89811814 2.3755002 9.6715112e-39
-0.42124593 0.89720529 2.3678672 1.0316169e-38
-0.31139815 0.89718699 2.3715003 9.8530087e-39
-0.27631786 0.89484304 2.3730791 9.3916733e-39
-0.21355338 0.88309926 2.3871493 9.2101673e-39
-0.18340655 0.87377316 2.3686984 9.4892933e-39
-0.7621578 0.90420777 2.3793039 9.3034545e-39
-0.72762835 0.90566874 2.3765383 9.6715084e-39
-0.658647 0.90840995 2.3793335 1.0224328e-38
-0.62273413 0.90778756 2.3769622 1.059203e-38
-0.57545823 0.91137755 2.3825359 1.068423e-38
-0.52247721 0.91166091 2.3775427 1.068495e-38
-0.47715011 0.9091956 2.3751874 1.0684588e-38
-0.4249967 0.90305191 2.3814349 1.0132136e-38
-0.37424845 0.90616715 2.3797026 9.3030832e-39
-0.33411473 0.90286654 2.3784997 9.761532e-39
-0.28520271 0.90163434 2.3692005 9.6689776e-39
-0.21303253 0.90248924 2.3758571 9.7607991e-39
-0.18962669 0.90297347 2.3703334 9.02359e-39
-1.2036089 -0.96090412 2.4118335 1.2443172e-38
-1.1721462 -0.96172905 2.4290905 1.2535007e-38
-1.1239094 -0.96414483 2.4430006 1.2351336e-38
-1.0963 -0.96300507 2.4411113 1.216766e-38
-0.25127998 -0.96091336 2.4430001 1.1799241e-38
-0.24226625 -0.95871717 2.4354448 1.1982912e-38
-0.10397144 -0.95422673 2.4260001 1.4103766e-38
-0.072464839 -0.95647532 2.4354446 1.3550234e-38
-0.046533335 -0.9539333 2.4430001 1.3088177e-38
-1.1744863 -0.92901164 2.4270279 1.2535369e-38
-1.1269058 -0.92597777 2.4334974 1.2535726e-38
-1.0927578 -0.93260562 2.4430003 1.2351693e-38
-0.25127998 -0.90740001 2.4430001 1.2259859e-38
-0.23442861 -0.92297721 2.4260004 1.2259498e-38
-0.11170799 -0.93322062 2.4089999 1.4288521e-38
-0.074013166 -0.92514557 2.4352696 1.3826825e-38
-0.044439342 -0.92601341 2.4430006 1.3549512e-38
-1.1588098 -0.87510848 2.4162021 1.2811957e-38
-1.133296 -0.87504119 2.4352059 1.2812313e-38
-1.0935334 -0.87482661 2.4430001 1.2628286e-38
-0.25127998 -0.87748581 2.4430001 1.2260215e-38
-0.23191801 -0.8780722 2.4289551 1.2536085e-38
-0.10247811 -0.89171255 2.4090004 1.4566189e-38
-0.080688603 -0.89145178 2.4351897 1.4472192e-38
-1.2014476 -0.83177149 2.4260001 1.299671e-38
-1.1735063 -0.82712901 2.4147887 1.2996711e-38
-1.1266413 -0.81968296 2.424186 1.3088545e-38
-1.089151 -0.81525367 2.4401674 1.2997064e-38
-1.0291622 -0.80502677 2.4430001 1.2996347e-38
-0.25127998 -0.81898671 2.4430001 1.2720473e-38
-0.23578802 -0.82576489 2.4249802 1.2720838e-38
-1.1639383 -0.77434886 2.422323 1.3456615e-38
-1.1270915 -0.77825308 2.4328985 1.3364776e-38
-1.0805997 -0.78259528 2.4406555 1.3089264e-38
-1.0233103 -0.79148978 2.4430006 1.2996351e-38
-0.25127998 -0.79339337 2.4430001 1.2812674e-38
-0.23415284 -0.77528882 2.4281578 1.3089263e-38
-0.074445769 -0.75610179 2.4190936 1.0323025e-38
-0.020561676 -0.75664771 2.4249697 1.0139356e-38
0.02418723 -0.75814056 2.4237962 1.0323384e-38
0.073401645 -0.75955194 2.4260001 1.0139714e-38
0.11029733 -0.75813556 2.4179053 1.014007e-38
-1.20127 -0.73205149 2.4294002 1.3642808e-38
-1.1708634 -0.72446465 2.423609 1.382576e-38
-1.1290845 -0.72807682 2.4311438 1.373392e-38
-1.0852315 -0.72911006 2.4351895 1.3641725e-38
-0.25127998 -0.73522669 2.4430001 1.2998509e-38
-0.23630239 -0.72357625 2.4246402 1.3366208e-38
-0.10094858 -0.70434576 2.4090002 1.1707767e-38
-0.071663715 -0.72440916 2.4210329 1.0877281e-38
-0.039748535 -0.73217982 2.4345005 1.0416301e-38
0.025504287 -0.74889052 2.4345002 1.0047156e-38
0.13277385 -0.7284041 2.4210117 1.0785082e-38
0.15142286 -0.7272886 2.4090002 1.0785451e-38
-1.1611632 -0.68133581 2.42804 1.4286379e-38
-1.1244855 -0.67464256 2.4362302 1.4103066e-38
-1.0876594 -0.6762656 2.4415841 1.4102704e-38
-0.23282319 -0.67497236 2.4283445 1.382647e-38
-0.10094859 -0.68107522 2.4090002 1.2076917e-38
-0.0734099 -0.67621815 2.4251106 1.161557e-38
-0.043484483 -0.67635572 2.4422615 1.0878363e-38
0.13679303 -0.67513371 2.413636 1.0139723e-38
0.15601143 -0.65157717 2.4090002 8.2101152e-39
-1.2022058 -0.62175143 2.4090002 1.4656249e-38
-1.1689372 -0.61653322 2.4227755 1.4564408e-38
-1.1287273 -0.62585181 2.4229343 1.4472213e-38
-1.0788227 -0.63540518 2.4430006 1.4288177e-38
-0.23336743 -0.62351316 2.4312298 1.4103422e-38
-0.072635673 -0.6227212 2.4123976 1.1522664e-38
-0.04149143 -0.63775665 2.4203336 6.6287331e-39
0.15601143 -0.64469433 2.4090002 6.4483523e-39
-1.1693505 -0.5728901 2.4178128 1.4932838e-38
-1.1274552 -0.5755986 2.4338174 1.4840999e-38
-1.0852377 -0.56454271 2.4393578 1.4933196e-38
-0.25127998 -0.56305337 2.4430001 1.4196696e-38
-0.2343961 -0.5736773 2.4246666 1.4288529e-38
-0.071522892 -0.57614678 2.4247024 1.2628287e-38
-0.043059718 -0.57403535 2.4296961 9.8645653e-39
0.1468343 -0.5506286 2.4090002 1.1893943e-38
-1.2057956 -0.51463276 2.418067 1.5210503e-38
-1.1709166 -0.52439135 2.4129472 1.5209786e-38
-1.1270423 -0.52296257 2.4242232 1.5210143e-38
-1.0849422 -0.52785873 2.4334378 1.5117946e-38
-0.25127998 -0.54909337 2.4430001 1.4380366e-38
-0.23335175 -0.5262478 2.4260001 1.4565119e-38
-0.10645486 -0.50749606 2.4090002 1.5947692e-38
-0.071220793 -0.52467614 2.4209137 1.4379997e-38
-0.042263914 -0.52955312 2.4283445 9.8602451e-39
0.14454001 -0.53801 2.4090002 1.1891436e-38
-1.2099339 -0.48179999 2.4090002 1.5395256e-38
-1.1672742 -0.47359127 2.4154754 1.5486734e-38
-1.1306174 -0.47305727 2.4335797 1.5578926e-38
-1.0857779 -0.46843556 2.4430003 1.5487086e-38
-0.25128001 -0.47231337 2.4430003 1.4657676e-38
-0.23834977 -0.47651801 2.4289026 1.4749511e-38
-0.10488164 -0.49163276 2.4090002 1.6039889e-38
-0.074720293 -0.47221023 2.4122088 1.5578902e-38
-0.04193693 -0.4713836 2.4364619 1.4288159e-38
-1.2333148 -0.42825714 2.4124 1.5856593e-38
-1.1575716 -0.42910096 2.4089997 1.5764037e-38
-1.128229 -0.42704767 2.4248464 1.5855514e-38
-1.0935334 -0.44672003 2.4430001 1.539669e-38
-0.25127998 -0.43974 2.4430001 1.474987e-38
-0.23876938 -0.4239603 2.4299538 1.4750593e-38
-0.074100845 -0.44051576 2.4187143 1.6040602e-38
-0.041788258 -0.44644862 2.4373333 1.5671451e-38
-1.2066009 -0.35533419 2.4138575 1.6317211e-38
-1.1695122 -0.37004814 2.4217985 1.604099e-38
-1.137132 -0.37654182 2.4272738 1.6040626e-38
-0.25128001 -0.35830671 2.4430003 1.4934263e-38
-0.23495245 -0.37358409 2.4284284 1.493498e-38
-0.063965447 -0.35760465 2.4114289 1.1339337e-38
-0.033726156 -0.35759315 2.4260004 1.1339697e-38
0.01017581 -0.36997828 2.4311004 1.1801041e-38
0.092810899 -0.36526072 2.4187145 1.1615929e-38
0.12001392 -0.36110684 2.4178689 1.1338621e-38
-1.2103008 -0.33596584 2.4114289 1.6225739e-38
-1.1717728 -0.3220095 2.4174976 1.6317934e-38
-1.1356336 -0.32424775 2.4333436 1.6317934e-38
-0.25252092 -0.323872 2.4430003 1.4751671e-38
-0.23512192 -0.32751063 2.4306896 1.4935343e-38
-0.062680356 -0.32360563 2.4209244 1.2169466e-38
-0.037338212 -0.32232407 2.4335201 1.2076546e-38
0.13020694 -0.32461524 2.4292884 1.1707762e-38
-1.261781 -0.27350575 2.4132502 1.6411572e-38
-1.2026029 -0.2726362 2.4260004 1.6778196e-38
-1.1748009 -0.27600461 2.4300773 1.6594524e-38
-1.1360554 -0.27438623 2.4430001 1.6502686e-38
-0.25179702 -0.26885927 2.4430001 1.5027542e-38
-0.23429884 -0.27565262 2.4293392 1.5027902e-38
-0.064479068 -0.2777006 2.4134336 1.3091792e-38
-0.037951823 -0.27797475 2.4294782 1.2907036e-38
0.1244145 -0.27665904 2.4211109 1.2445695e-38
-1.2022058 -0.20878002 2.4090002 1.6871834e-38
-1.1717672 -0.22596273 2.4299729 1.6779274e-38
-1.1369789 -0.22220479 2.4417412 1.6778915e-38
-1.09586 -0.24430001 2.4430001 1.6870745e-38
-0.2516678 -0.22529891 2.4430003 1.5119739e-38
-0.23597826 -0.2255512 2.4233847 1.5119739e-38
-0.061115038 -0.220199 2.4111621 1.410667e-38
-0.033114444 -0.21951924 2.4343603 1.3553129e-38
0.12634714 -0.22331136 2.4217482 1.2999589e-38
-1.1678793 -0.17528091 2.4340947 1.6964027e-38
-1.1288439 -0.16998354 2.4430003 1.6964025e-38
-1.0981867 -0.19544001 2.4430001 1.6871828e-38
-0.25244331 -0.16519333 2.4430001 1.51201e-38
-0.23521124 -0.17771733 2.4293334 1.51201e-38
-0.062286444 -0.17310804 2.4131832 1.4567293e-38
-0.035075333 -0.17941803 2.4353025 1.3922633e-38
0.13118456 -0.17654143 2.4231305 1.3461289e-38
-1.2037483 -0.10333143 2.4187145 1.7701229e-38
-1.1683497 -0.12298577 2.4246666 1.7332809e-38
-1.1298877 -0.14061792 2.4430006 1.7056222e-38
-0.25451708 -0.12381914 2.4430006 1.5027907e-38
-0.23902653 -0.12431282 2.4286158 1.5120102e-38
-0.057543177 -0.12798394 2.4089992 1.4935713e-38
-0.035546213 -0.12770164 2.4242408 1.4291416e-38
0.12641723 -0.123661 2.4250214 1.3830072e-38
-1.2029414 -0.087482393 2.4175003 1.7609752e-38
-1.1708651 -0.074997991 2.4136612 1.7609756e-38
-1.1380152 -0.072375804 2.4365425 1.7425366e-38
-0.2528311 -0.088413343 2.4430001 1.5211575e-38
-0.23899171 -0.073051982 2.4309759 1.4936428e-38
-0.059155367 -0.07279706 2.4089992 1.7517179e-38
-0.036631778 -0.07488858 2.4278212 1.5396687e-38
0.097720005 -0.083760008 2.4430001 1.4198493e-38
