# .PCD v0.7 - Point Cloud Data file format
VERSION 0.7
FIELDS x y z rgb
SIZE 4 4 4 4
TYPE F F F F
COUNT 1 1 1 1
WIDTH 1032
HEIGHT 1
VIEWPOINT 0 0 0 0 1 0 0
POINTS 1032
DATA ascii
0.61884767 -0.38293335 1.7950001 1.0776034e-38
0.6678713 -0.37011489 1.7547753 1.0320488e-38
0.33479244 -0.31741589 1.7665002 1.2438491e-38
0.47851577 -0.32544309 1.758639 1.1888543e-38
0.52233863 -0.32543999 1.7836515 1.1426843e-38
0.55189127 -0.31597698 1.7950001 1.1150971e-38
0.68000007 -0.34666669 1.7500001 9.7673123e-39
0.48125353 -0.27783373 1.7568518 1.2719394e-38
0.52350974 -0.27353001 1.7824947 1.2165496e-38
0.55099267 -0.26984176 1.7950002 1.1888182e-38
0.64490128 -0.26508212 1.7653531 6.264977e-39
0.66602129 -0.27996892 1.7654804 1.0136448e-38
0.47858447 -0.22467181 1.7566327 1.382611e-38
0.52475113 -0.23383589 1.7862383 1.2168017e-38
0.55623019 -0.23493743 1.7949992 1.0326614e-38
0.63941127 -0.22814876 1.7776794 1.0690343e-38
0.65990674 -0.2269662 1.7556634 8.0177674e-39
0.48072746 -0.17512238 1.7592384 1.4932465e-38
0.5229519 -0.17079972 1.7786801 1.3734266e-38
0.5580287 -0.16641591 1.7943994 1.0139332e-38
0.63471925 -0.17623024 1.7736634 1.2442081e-38
0.66175157 -0.17047589 1.7608494 9.5861651e-39
0.33728132 -0.11279937 1.7590002 1.3640637e-38
0.44666669 -0.11000001 1.7500001 1.9635161e-38
0.47346917 -0.12500228 1.7564569 1.7329191e-38
0.51523876 -0.13676021 1.7707884 1.4286727e-38
0.55046672 -0.14701906 1.7950001 8.9472711e-39
0.63771355 -0.12558542 1.7775546 1.3087093e-38
0.65821171 -0.1220248 1.7550871 1.1795263e-38
0.47865069 -0.071852796 1.7547623 1.8712123e-38
0.50885284 -0.060895946 1.7692003 1.6314676e-38
0.62747049 -0.076114602 1.7750808 1.3088533e-38
0.65445971 -0.096046984 1.7590002 1.3733542e-38
0.43861431 -0.0091838101 1.7545002 2.038244e-38
0.47641578 -0.026311148 1.7579886 1.9911385e-38
0.52284688 -0.026683656 1.7804598 1.5945525e-38
0.55217624 -0.013676191 1.7950001 1.4745893e-38
0.63104856 -0.032950509 1.7832603 1.1522287e-38
0.65747309 -0.031193335 1.7691252 5.4431701e-39
0.29619753 0.022133833 1.7950002 1.6311787e-38
0.31075594 0.02362271 1.7702836 1.6127037e-38
0.29666945 0.081432596 1.7935598 1.6312504e-38
0.31428871 0.074299224 1.7680011 1.6496534e-38
0.29657343 0.12583713 1.792818 1.6219946e-38
0.31240743 0.12352461 1.7691742 1.6219947e-38
0.2966527 0.17960057 1.7950001 1.603555e-38
0.31208053 0.17504777 1.7715881 1.6035554e-38
0.297699 0.22754863 1.7913437 1.575861e-38
0.31171283 0.22422333 1.7661438 1.5758609e-38
0.29680765 0.27453077 1.7901858 1.5389462e-38
0.31243825 0.27537316 1.7663262 1.5389823e-38
0.29558998 0.33058661 1.7937833 1.5020679e-38
0.31153148 0.32292873 1.7682016 1.5112875e-38
0.29336831 0.37622797 1.7912858 1.4927405e-38
0.31180161 0.37315297 1.7669342 1.4928121e-38
0.29622123 0.42670229 1.793548 1.4466422e-38
0.31252447 0.42545617 1.767434 1.4558621e-38
0.29570344 0.48129293 1.7914871 1.4098001e-38
0.31100506 0.47285342 1.7680682 1.4189834e-38
0.29449901 0.52634901 1.7900778 1.3821052e-38
0.31088215 0.52504176 1.765518 1.382105e-38
0.29265299 0.57246882 1.7883753 1.35441e-38
0.31072682 0.57628965 1.7643559 1.3544456e-38
0.29540083 0.62289363 1.7858273 1.3176037e-38
0.31174168 0.62672544 1.7618808 1.3267509e-38
0.29753512 0.6772157 1.7915384 1.2898724e-38
0.31265461 0.67616403 1.7693434 1.2990562e-38
0.29517809 0.72028172 1.7892723 1.2435582e-38
0.31253204 0.72459424 1.7654777 1.2527778e-38
0.29561052 0.78136492 1.7941816 1.2710727e-38
0.31308797 0.77312905 1.7714511 1.2894762e-38
0.29574764 0.80176669 1.7950001 1.2709289e-38
0.3008762 0.80176669 1.7950001 1.2709648e-38
0.54240906 -0.70798266 1.8040006 1.3083835e-38
0.57648551 -0.71291524 1.8184719 1.2624288e-38
0.61421978 -0.71292216 1.8212976 1.271577e-38
0.54156101 -0.67453706 1.8056256 1.3269307e-38
0.57625455 -0.67633712 1.8239048 1.3084916e-38
0.61767823 -0.67506164 1.8201014 1.3084913e-38
0.53526789 -0.61571866 1.8053958 1.354769e-38
0.57998043 -0.62383181 1.8258395 1.2717211e-38
0.6204077 -0.62500036 1.8247365 1.280797e-38
0.65287626 -0.62023246 1.8040001 1.2447839e-38
0.540003 -0.57247907 1.8048756 1.4467499e-38
0.57563174 -0.57299936 1.824725 1.3269306e-38
0.61090499 -0.57447052 1.836217 1.4006156e-38
0.53969455 -0.53426486 1.8061061 1.5204341e-38
0.57188696 -0.52502751 1.8151321 1.4558244e-38
0.61117107 -0.53750318 1.8352323 1.0595642e-38
0.56000131 -0.49801654 1.8073335 1.6676944e-38
0.27910325 -0.38392198 1.8256396 1.6035556e-38
0.33080786 -0.37331888 1.8238667 1.2163692e-38
0.54841602 -0.35770741 1.8040001 1.0597076e-38
0.57722604 -0.36444485 1.8150102 1.031977e-38
0.61331266 -0.37219918 1.8286935 1.0319762e-38
0.54837561 -0.32603386 1.8040004 1.115025e-38
0.5734235 -0.32520229 1.8087331 1.0689632e-38
0.60342604 -0.32804403 1.8195558 9.9535001e-39
0.54910326 -0.29413795 1.8040001 1.1427199e-38
0.57584137 -0.27564979 1.8133838 1.124317e-38
0.62134343 -0.27449116 1.821508 1.1150967e-38
0.65355182 -0.28855813 1.8106668 1.0874005e-38
0.54129833 -0.22000347 1.8079001 7.9334541e-39
0.58376676 -0.24177985 1.8187728 1.1428993e-38
0.61454785 -0.2400299 1.8155575 1.0601029e-38
0.52573717 -0.19586287 1.8040001 1.4472533e-38
0.57688063 -0.17419945 1.80826 1.0599594e-38
0.61516571 -0.16975349 1.8190892 9.7709165e-39
0.55666286 -0.1477562 1.8040001 7.7451756e-39
0.62001586 -0.11958218 1.8210697 1.0232619e-38
0.5137105 -0.092777148 1.8040001 1.6222129e-38
0.61996138 -0.088917933 1.8129147 1.2628272e-38
0.61522412 -0.035031669 1.8120627 1.1524454e-38
0.27923197 0.025014974 1.8256785 1.5943366e-38
0.27954715 0.074374586 1.821929 1.6312503e-38
0.27938205 0.1248966 1.8227232 1.6128112e-38
0.27905917 0.17398347 1.8211663 1.5851525e-38
0.2808257 0.22594501 1.8240713 1.5483098e-38
0.27760643 0.27434155 1.8267022 1.5297626e-38
0.27844244 0.32412952 1.8260763 1.5020682e-38
0.27526534 0.37501556 1.8264381 1.4835569e-38
0.27734447 0.42488393 1.8249744 1.4466785e-38
0.27725556 0.47421217 1.8263501 1.4098e-38
0.27565706 0.52519321 1.825 1.3728856e-38
0.27396458 0.57479745 1.824682 1.3360431e-38
0.27880731 0.62502563 1.8246101 1.3175675e-38
0.27733168 0.67681336 1.824841 1.2714696e-38
0.2773667 0.72497547 1.8224446 1.2344108e-38
0.2809982 0.77496982 1.8255823 1.2711091e-38
0.30238479 0.77314287 1.8040001 1.2986974e-38
0.27652168 0.81017262 1.8316672 1.261817e-38
0.61766666 -0.60001904 1.853 1.4190186e-38
0.61766672 -0.52766383 1.853 6.9013151e-39
0.24445388 -0.38800266 1.8861822 1.7695786e-38
0.27196926 -0.37890258 1.8735 1.4007608e-38
0.32107857 -0.37481439 1.876702 1.2440635e-38
0.35262734 -0.36930162 1.8763336 1.1610534e-38
0.62943178 -0.38001209 1.853 1.0779302e-38
0.61933869 -0.11915848 1.8730001 1.1982161e-38
0.24499819 0.026292533 1.88579 1.5391627e-38
0.25761947 0.030806798 1.8631536 1.5576021e-38
0.24422196 0.077914931 1.8848438 1.5852606e-38
0.25849304 0.076429874 1.8644283 1.6036638e-38
0.24190871 0.12421999 1.8850571 1.5760049e-38
0.25846982 0.12485047 1.8620906 1.5851888e-38
0.24466901 0.17355186 1.8824198 1.5667494e-38
0.25724354 0.17672946 1.8617268 1.5667854e-38
0.24389154 0.22383292 1.8835224 1.5482744e-38
0.25915509 0.22358738 1.8617316 1.5483098e-38
0.24346226 0.27655682 1.8867344 1.5113958e-38
0.25607243 0.27710173 1.8654072 1.5205434e-38
0.24455047 0.32218423 1.8857149 1.4928847e-38
0.25684053 0.32501543 1.861181 1.4928487e-38
0.24340872 0.37672767 1.8839514 1.4652258e-38
0.25653288 0.37271717 1.8617926 1.4743734e-38
0.24470174 0.42816928 1.8849832 1.437495e-38
0.25576937 0.42213809 1.8628211 1.4375311e-38
0.2421706 0.47597182 1.8813173 1.4006166e-38
0.25632054 0.47331995 1.8623477 1.4098e-38
0.24210669 0.52626193 1.8839146 1.3728857e-38
0.25723305 0.5241372 1.8653077 1.3729216e-38
0.24288972 0.57762098 1.8846239 1.3268239e-38
0.25652185 0.5766117 1.868345 1.3360432e-38
0.24249651 0.62613845 1.884284 1.2991645e-38
0.25866631 0.62868512 1.8691446 1.2992004e-38
0.24316865 0.67650342 1.8782881 1.262322e-38
0.25619847 0.67007977 1.8616276 1.2806891e-38
0.24241936 0.72750753 1.8806273 1.2160074e-38
0.25675356 0.72493249 1.8577995 1.2251913e-38
0.24304883 0.77259427 1.8844268 1.2527063e-38
0.2586292 0.775765 1.8604994 1.2527782e-38
0.24229291 0.82208282 1.8879828 1.2158278e-38
0.25749317 0.81958419 1.8662143 1.2342665e-38
0.230358 -0.7690782 1.9438574 1.1332488e-38
0.27369106 -0.76955795 1.9458424 1.1425043e-38
0.30626625 -0.76829255 1.9470004 1.1425044e-38
0.35231429 -0.77138293 1.9470001 1.1425763e-38
0.21448432 -0.40717289 1.9360002 1.1242098e-38
0.22810142 -0.38176665 1.9247441 1.4560427e-38
0.27029464 -0.36992395 1.9202497 1.2532838e-38
0.32996368 -0.37127152 1.9195503 1.2348801e-38
0.35628211 -0.37022194 1.9264001 1.1980742e-38
0.22465174 0.030698996 1.9212753 1.5299435e-38
0.22252136 0.073087998 1.9216765 1.5760409e-38
0.22208004 0.12602204 1.9253473 1.5667855e-38
0.22270404 0.17516534 1.9233314 1.5483824e-38
0.22317864 0.2247294 1.9229202 1.5390909e-38
0.2211826 0.27367556 1.9246588 1.5205795e-38
0.22601484 0.32603833 1.9248718 1.4929207e-38
0.22454351 0.37292001 1.9229006 1.465226e-38
0.2234055 0.42537001 1.9218955 1.4283117e-38
0.22197042 0.47572717 1.9260427 1.3914333e-38
0.22045366 0.52424937 1.9274778 1.3637383e-38
0.22226305 0.57451606 1.9232527 1.3176764e-38
0.22291133 0.62612647 1.9237806 1.2900171e-38
0.22498406 0.67519677 1.9237033 1.2715057e-38
0.1965543 0.7454229 1.9470001 1.2161155e-38
0.22160532 0.72709227 1.9247292 1.2160434e-38
0.21897312 0.77477342 1.9251622 1.2343389e-38
0.22231767 0.8238219 1.9249419 1.1974247e-38
0.21956319 0.85842109 1.9309427 1.0499471e-38
0.19035748 -0.77831048 1.9807919 1.5021761e-38
0.22412835 -0.77228999 1.9717168 1.1516885e-38
0.27754039 -0.77093196 1.9729791 1.1241376e-38
0.32658806 -0.7696799 1.9730139 1.133285e-38
0.36086723 -0.77274919 1.9755671 1.1148816e-38
0.17064667 -0.40130097 1.9690001 1.1062399e-38
0.21165049 -0.41584191 1.9580001 1.252963e-38
0.18378145 -0.3874042 1.9805204 1.4008325e-38
0.214641 -0.37641463 1.9701769 1.3822863e-38
0.28481841 -0.36935306 1.9704707 1.2441714e-38
0.32144213 -0.37321186 1.9747778 1.2440641e-38
0.36241752 -0.36858389 1.9756315 1.2164781e-38
0.19322841 0.030834699 1.9750657 1.5115404e-38
0.20666997 0.024374396 1.9612358 1.5391993e-38
0.18183033 0.076738663 1.9715062 1.1888915e-38
0.20318447 0.07473965 1.9579999 1.5391991e-38
0.18728676 0.12395096 1.9751871 1.5207599e-38
0.20623474 0.12418517 1.9579999 1.5667496e-38
0.19017826 0.17444694 1.9772049 1.539163e-38
0.20374249 0.17763585 1.9580001 1.5483465e-38
0.18993016 0.22628574 1.9787501 1.5207597e-38
0.20486592 0.22667415 1.9582821 1.5482746e-38
0.19278787 0.27310613 1.9783056 1.5114321e-38
0.2033572 0.2740218 1.9579999 1.5113967e-38
0.19253142 0.32719898 1.9810153 1.492921e-38
0.206862 0.32569638 1.95822 1.4837371e-38
0.19251561 0.37631616 1.9776615 1.4560427e-38
0.20571713 0.37702093 1.9580001 1.4652263e-38
0.18925281 0.42556402 1.9778289 1.4191643e-38
0.20456593 0.42406052 1.9593753 1.4191645e-38
0.19079609 0.47581965 1.9789003 1.3914336e-38
0.20498575 0.4765583 1.9609121 1.3914332e-38
0.19202636 0.52435803 1.9824767 1.3545551e-38
0.2047732 0.52778423 1.9642339 1.3637386e-38
0.19089726 0.57529813 1.980925 1.3176767e-38
0.20452078 0.57341695 1.9600629 1.3268604e-38
0.19047005 0.62648529 1.9756581 1.2899817e-38
0.2047907 0.62317652 1.9594104 1.2992013e-38
0.19141956 0.67534 1.9749073 1.2623585e-38
0.2067665 0.6762194 1.9594669 1.2622867e-38
0.19138807 0.72594869 1.9752232 1.1977126e-38
0.20694424 0.7187525 1.961326 1.2160802e-38
0.19091661 0.77488035 1.9731199 1.206788e-38
0.20245989 0.78080243 1.9580002 1.2159717e-38
0.19089556 0.82341969 1.9792718 1.1790576e-38
0.20350231 0.82811654 1.9580001 1.1790573e-38
-0.76064324 0.89088833 1.9902861 5.3372516e-39
-0.72496963 0.89008707 1.9905459 6.1666521e-39
-0.67316353 0.88930351 1.9881954 5.9826168e-39
-0.62877238 0.88963771 1.9892306 7.5492194e-39
-0.57476085 0.89143002 1.9902862 8.2857055e-39
-0.53715503 0.89098078 1.9888003 8.7473899e-39
-0.47672492 0.88894683 1.9920006 7.5495725e-39
-0.42117879 0.88779843 1.9894289 9.482441e-39
-0.37883162 0.88734406 1.9905887 9.7583062e-39
-0.32276723 0.88637346 1.9864002 9.9441324e-39
-0.27562842 0.88334244 1.9847598 1.0221449e-38
-0.22375385 0.88563013 1.9883075 1.0404759e-38
-0.17376323 0.88139665 1.9793195 9.943761e-39
-0.12366159 0.87848765 1.9768367 9.4827899e-39
-0.077197492 0.88123381 1.9838215 1.0403293e-38
-0.024186669 0.88836479 1.9910004 1.0220348e-38
0.030027863 0.88380581 1.9844739 1.0310727e-38
0.060708579 0.88976002 1.9920003 1.0401844e-38
0.12518479 0.88561022 1.9885718 1.0124534e-38
0.18343976 0.87479103 1.9819614 9.8501221e-39
0.20459105 0.86294085 1.9580001 9.7615502e-39
0.14718859 -0.77815711 2.0336666 1.4745885e-38
0.17316571 -0.77621925 2.0197771 1.3268964e-38
0.22534291 -0.76929295 2.0176966 1.1333207e-38
0.27292547 -0.77225715 2.0189996 1.1241373e-38
0.32733288 -0.76778036 2.0180542 1.1241373e-38
0.36241964 -0.76900625 2.0200324 1.1241735e-38
0.16987734 -0.3768861 2.0158331 1.4100528e-38
0.22574764 -0.37018541 2.0216203 1.2717226e-38
0.28311983 -0.37360334 2.0243335 1.253355e-38
0.32821527 -0.36986542 2.0197995 1.2441357e-38
0.36036313 -0.36782798 2.0180001 1.2257329e-38
0.17268209 0.029393101 2.0176806 1.4931019e-38
0.16238548 0.071928754 2.0227895 1.2625034e-38
0.16476849 0.12639512 2.0190008 1.4192732e-38
0.14758477 0.19419049 2.039 1.5207238e-38
0.16583757 0.17565854 2.0168715 1.520724e-38
0.16874407 0.22266217 2.020087 1.52076e-38
0.17187245 0.27709901 2.0162222 1.502249e-38
0.17261538 0.32348397 2.0177503 1.4745902e-38
0.14758477 0.37931877 2.039 1.4376762e-38
0.16898718 0.37523243 2.0158572 1.4652265e-38
0.14758477 0.40779996 2.039 1.437532e-38
0.16808006 0.42107448 2.0188668 1.4283481e-38
0.16845708 0.47491086 2.018086 1.3822862e-38
0.16988117 0.52425367 2.0198486 1.3545914e-38
0.14758477 0.5942229 2.039 1.2901265e-38
0.16888624 0.57657063 2.0187354 1.3176768e-38
0.16966477 0.62559235 2.0185218 1.2807984e-38
0.16969612 0.67690068 2.0179129 1.271542e-38
0.17024653 0.72610134 2.01632 1.1884936e-38
0.17060038 0.77392143 2.0156248 1.1883855e-38
0.17164598 0.82571995 2.0191925 1.1606187e-38
-0.90132993 0.89061528 2.0102003 4.5096531e-39
-0.88255727 0.89463723 2.0198748 4.8762692e-39
-0.81769711 0.89460224 2.0236509 4.8773538e-39
-0.77946955 0.89350986 2.0214288 5.3368914e-39
-0.72568214 0.8914451 2.0175385 6.0751768e-39
-0.67472452 0.88980138 2.0192499 6.0744523e-39
-0.62492561 0.89081466 2.0190001 7.4566679e-39
-0.57598364 0.89252228 2.0189342 8.6548453e-39
-0.52547765 0.89076185 2.0153379 9.4838745e-39
-0.46310404 0.89100516 2.018158 9.6671966e-39
-0.42521665 0.88826442 2.0170372 9.4828039e-39
-0.37248692 0.88756067 2.0196447 9.7586733e-39
-0.32715094 0.88613981 2.0236998 9.9434219e-39
-0.27467585 0.88234848 2.0203915 1.0128895e-38
-0.22558069 0.88304555 2.0195642 1.0221091e-38
-0.17644818 0.88569325 2.024375 1.0312906e-38
-0.12647413 0.88493621 2.0243337 9.5742695e-39
-0.073390581 0.88095909 2.0186427 1.0495845e-38
-0.027547551 0.88677418 2.01721 1.0588399e-38
0.023953864 0.88572556 2.0196662 1.0495473e-38
0.076244481 0.88611001 2.012939 1.0125616e-38
0.12519903 0.88323241 2.0192859 9.5728023e-39
0.16941503 0.87014538 2.0114493 8.9306965e-39
-0.90091491 0.90218663 2.007 4.2337795e-39
-0.87508541 0.90516239 2.0210004 4.5082098e-39
-0.82729894 0.902574 2.0116084 4.6011257e-39
-0.78222686 0.90054017 2.0110002 4.877714e-39
-0.73938918 0.90061206 2.0150001 6.074811e-39
-0.62810922 0.900828 2.027 7.4573881e-39
-0.58245969 0.90039623 2.003 8.3771836e-39
0.13505682 -0.77371496 2.0695012 1.3823218e-38
0.1759901 -0.76314479 2.0564511 1.133357e-38
0.22330405 -0.76543313 2.0641856 1.1333209e-38
0.27665192 -0.76839429 2.0676384 1.1149896e-38
0.32195958 -0.76881027 2.0673246 1.1241372e-38
0.36365056 -0.76877344 2.0658753 1.1149541e-38
0.14153878 -0.37519133 2.0683103 1.5576018e-38
0.17194954 -0.36694053 2.0674741 1.2901627e-38
0.22521073 -0.36974561 2.0669587 1.2809419e-38
0.27409223 -0.37326011 2.0696733 1.2625748e-38
0.33216321 -0.36226472 2.0685754 1.2441717e-38
0.37567657 -0.36223155 2.0695002 1.2164058e-38
0.38750672 -0.34641433 2.0550001 1.1331803e-38
0.13727447 0.030256674 2.0703843 1.4931377e-38
0.15482737 0.03001965 2.0510001 1.4839183e-38
0.13259104 0.073661298 2.0655696 1.1520861e-38
0.1540343 0.065576196 2.0510006 1.5301586e-38
0.13761809 0.12496738 2.0696266 1.4746986e-38
0.15366223 0.11954401 2.0510006 1.5207601e-38
0.13589478 0.17678173 2.0713391 1.5115766e-38
0.15236002 0.16212669 2.0510004 1.4929938e-38
0.13577627 0.22415017 2.0675724 1.5115047e-38
0.15459237 0.23049332 2.0509999 1.5115762e-38
0.13852088 0.27382493 2.0672388 1.4838463e-38
0.15505426 0.27050298 2.0509996 1.5022847e-38
0.13961896 0.32592672 2.0757909 1.4561875e-38
0.1557558 0.32668549 2.0520906 1.4745544e-38
0.13812332 0.37551147 2.0703256 1.4284925e-38
0.15453216 0.36468035 2.0519235 1.4468957e-38
0.14196141 0.42626473 2.0749998 1.4191289e-38
0.1552386 0.43754673 2.0510001 1.4007612e-38
0.1393683 0.47567299 2.0713463 1.3731028e-38
0.15350901 0.47063845 2.0510004 1.400653e-38
0.13797022 0.5235666 2.0687716 1.3454441e-38
0.15411799 0.5295487 2.0510001 1.3454078e-38
0.1386569 0.5761382 2.0700476 1.3177133e-38
0.1563327 0.56569767 2.0518887 1.326933e-38
0.14152716 0.62133241 2.0727506 1.2808347e-38
0.15549491 0.6298098 2.0520434 1.2624673e-38
0.14187108 0.68116307 2.0710011 1.2623949e-38
0.15372343 0.67014396 2.0552692 1.2623949e-38
0.13848133 0.72498709 2.0729742 1.1700908e-38
0.15710485 0.7296291 2.0545588 1.1884939e-38
0.13850471 0.77508181 2.0691524 1.1699463e-38
0.15446307 0.7815643 2.0516317 1.1791302e-38
0.14049925 0.82423902 2.0665443 1.1514353e-38
0.15616387 0.824718 2.0510001 1.1606545e-38
-0.80477339 0.89351052 2.0510004 5.2461321e-39
-0.77552491 0.8939476 2.0628264 5.7074732e-39
-0.72558707 0.89246035 2.0641503 6.0766187e-39
-0.67904389 0.88996065 2.0658073 5.8907827e-39
-0.62602794 0.89514393 2.0708892 7.6414221e-39
-0.57391191 0.89326268 2.0692716 9.0225446e-39
-0.53698856 0.89172953 2.0700715 9.3923949e-39
-0.46682477 0.89204502 2.0662413 9.7601083e-39
-0.42832753 0.89258736 2.0676174 9.6671952e-39
-0.37383178 0.89093024 2.07026 9.7586747e-39
-0.32474265 0.88554519 2.0663345 9.7597537e-39
-0.2707198 0.88304615 2.0705593 1.0036702e-38
-0.22524433 0.88465554 2.0704596 1.0220372e-38
-0.17484005 0.88298494 2.0662801 9.2991231e-39
-0.12458531 0.88491571 2.0701182 9.9444841e-39
-0.075927049 0.88352549 2.070209 1.040365e-38
-0.025479859 0.88888925 2.0697324 1.0127072e-38
0.021288501 0.88952363 2.0708714 1.0770629e-38
0.076417349 0.88539839 2.0708761 1.0309286e-38
0.13166445 0.87663454 2.0726323 9.3898698e-39
0.15612684 0.86654651 2.0534997 9.3945683e-39
-0.87118667 0.90244007 2.0510001 4.6951262e-39
-0.77376401 0.9043318 2.0776312 5.6152818e-39
-0.73665571 0.90236366 2.071125 6.0762558e-39
-0.65899438 0.90198869 2.0800004 6.8116698e-39
-0.6432966 0.90215248 2.0593336 7.1800782e-39
-0.52016628 0.9021306 2.0727501 5.6163412e-39
-0.48918858 0.90281147 2.0880001 1.0129593e-38
-0.39771429 0.90281147 2.0880001 1.0035616e-38
0.097828574 -0.78059053 2.1400001 1.4929921e-38
0.12417923 -0.76774633 2.1197605 1.2440282e-38
0.17596634 -0.7664842 2.1217992 1.1333573e-38
0.22411183 -0.76772833 2.121634 1.1241736e-38
0.27616501 -0.76781946 2.1217113 1.1241373e-38
0.32433784 -0.76718444 2.1199484 1.1241733e-38
0.37021211 -0.77025634 2.1241827 1.1241376e-38
0.13263297 -0.55655682 2.1399999 5.1647447e-39
0.20584762 -0.55028576 2.1400001 1.1885672e-38
0.12859963 -0.52317095 2.1393242 6.0856094e-39
0.19786021 -0.53172153 2.1374004 1.1334656e-38
0.20899545 -0.5366348 2.13675 1.114955e-38
0.40390477 -0.50691903 2.1205001 1.3177878e-38
0.13138372 -0.47980145 2.1376958 1.0599622e-38
0.16533734 -0.47161764 2.1337161 1.0966237e-38
0.14990287 -0.44970861 2.1270001 6.5206804e-39
0.1671602 -0.44733611 2.1101 9.4017752e-39
0.093356192 -0.38295239 2.1313334 1.6221745e-38
0.11965297 -0.37154502 2.121455 1.4286001e-38
0.18313652 -0.36901799 2.1212223 1.2718308e-38
0.22656953 -0.37217832 2.1218786 1.2626113e-38
0.27191249 -0.36632487 2.1127 1.2717589e-38
0.31936017 -0.36624444 2.1129601 1.2441717e-38
0.37311321 -0.3644422 2.117095 1.2165133e-38
0.097013339 0.033017144 2.1400001 1.4746276e-38
0.11253721 0.031048125 2.110589 1.4838464e-38
0.096469842 0.084241278 2.1400001 1.5024291e-38
0.10796541 0.076391622 2.1147354 1.4099439e-38
0.096454926 0.11992963 2.1361763 1.5116127e-38
0.11216218 0.12492189 2.1106734 1.437892e-38
0.096663944 0.19332789 2.1400003 1.5023929e-38
0.11186872 0.17327888 2.113821 1.4931375e-38
0.097319044 0.21909526 2.1400001 1.5023573e-38
0.11083835 0.22525129 2.1136479 1.502357e-38
0.097828574 0.25272381 2.1400001 1.4839183e-38
0.11388006 0.27579659 2.1141503 1.4746985e-38
0.11515003 0.32414451 2.1135705 1.4654067e-38
0.097828574 0.36685717 2.1400001 1.4468238e-38
0.1141901 0.37315285 2.1174757 1.437676e-38
0.09557537 0.42331368 2.1382666 1.4100175e-38
0.1172764 0.4257175 2.1132073 1.4007979e-38
0.097828582 0.46468574 2.1400003 1.3823226e-38
0.11459617 0.47451103 2.115895 1.3822865e-38
0.097828574 0.50748575 2.1400001 1.3638472e-38
0.11381316 0.52481717 2.120182 1.3546278e-38
0.096469842 0.58765084 2.1399999 1.3086016e-38
0.1141333 0.57288682 2.1144009 1.3177851e-38
0.095790476 0.60531425 2.1400001 1.2810148e-38
0.11785612 0.62756681 2.1155934 1.2716873e-38
0.097828582 0.68247074 2.1400003 1.2440281e-38
0.1194048 0.67297089 2.1141062 1.2532116e-38
0.097828582 0.72730887 2.1400003 1.1793465e-38
0.1150185 0.72468418 2.1170223 1.1793464e-38
0.11603838 0.772596 2.117851 1.1607992e-38
0.11711002 0.8258478 2.1225214 1.1514712e-38
-0.73848689 0.89680672 2.10425 6.5375982e-39
-0.67062461 0.89255345 2.1108289 6.8123803e-39
-0.62527162 0.89132965 2.1142023 7.8261692e-39
-0.57770354 0.88935131 2.1161306 8.7481171e-39
-0.53685546 0.88717508 2.1047921 5.2457692e-39
-0.47314277 0.89080167 2.1174521 1.0221444e-38
-0.42746165 0.89417803 2.1193523 1.040512e-38
-0.37492761 0.89139402 2.1212423 1.0220366e-38
-0.32612348 0.89095002 2.1240528 9.9448625e-39
-0.27620792 0.88434911 2.1185098 1.031293e-38
-0.22958836 0.88799322 2.1174877 1.0037058e-38
-0.17277141 0.88877434 2.1254878 9.4824424e-39
-0.12268131 0.88459581 2.1219442 1.0035592e-38
-0.075618073 0.88409793 2.1169178 9.5746156e-39
-0.026322862 0.88986355 2.1146717 9.7597341e-39
0.024076162 0.88975257 2.1162932 1.0034148e-38
0.07317654 0.88584429 2.1139998 9.5728037e-39
0.1140553 0.87305367 2.1191993 9.4845906e-39
-0.78659332 0.90682995 2.1042502 6.168087e-39
-0.73501652 0.90042865 2.1010003 6.2606582e-39
-0.62089574 0.9006846 2.125375 8.0101962e-39
-0.59628385 0.90042859 2.1010001 8.1963839e-39
-0.52616233 0.90269744 2.1053333 4.6011285e-39
-0.4944118 0.90249777 2.1075001 1.0221438e-38
-0.41163117 0.900994 2.1255558 1.0496238e-38
-0.39418763 0.90042859 2.1010001 1.0127827e-38
0.086041182 -0.77233416 2.1752687 1.3270046e-38
0.12365828 -0.76230615 2.1722786 1.1426486e-38
0.17479666 -0.76338357 2.1700583 1.1242454e-38
0.22582488 -0.76300585 2.1666718 1.1150259e-38
0.27709597 -0.76302665 2.1670697 1.1241736e-38
0.32631245 -0.76259667 2.168159 1.133357e-38
0.37297443 -0.76443017 2.1696441 1.1241017e-38
0.40536761 -0.70208001 2.194 1.2069693e-38
0.404567 -0.6881727 2.1896667 1.1978578e-38
0.1380654 -0.55567908 2.1530001 4.8892354e-39
0.17288233 -0.5570901 2.161 5.4413358e-39
0.20094669 -0.55362862 2.1530001 1.2710384e-38
0.40954664 -0.55372381 2.194 1.1610533e-38
0.13015643 -0.52560544 2.1530001 6.2692762e-39
0.17437753 -0.52637929 2.162771 5.8072331e-39
0.21194769 -0.53307337 2.1578696 1.1425774e-38
0.39700952 -0.54536569 2.194 1.2439921e-38
0.40758923 -0.53427505 2.1777897 1.1703091e-38
0.1279182 -0.4706631 2.1530001 9.9603818e-39
0.17309438 -0.49040553 2.1530001 1.0779299e-38
0.085298546 -0.37100595 2.1642632 1.4746982e-38
0.13270979 -0.36209446 2.1749744 1.2718668e-38
0.16216464 -0.36369967 2.1710868 1.2809788e-38
0.22260903 -0.37065694 2.1703029 1.253428e-38
0.27656379 -0.36601752 2.1754668 1.2533918e-38
0.31028211 -0.36869818 2.1822352 1.244172e-38
0.37861371 -0.3661381 2.1819 1.1613037e-38
0.40327808 -0.36775619 2.194 1.1149912e-38
0.41272998 -0.32588866 2.1920502 1.2070789e-38
0.41028506 -0.27535012 2.1923749 1.2257696e-38
0.41630539 -0.22034368 2.1929169 1.317677e-38
0.41087317 -0.1758104 2.1890419 1.3455154e-38
0.4120681 -0.14604381 2.1907501 1.3822859e-38
0.40974566 -0.05950167 2.194 1.3825014e-38
0.41485152 -0.029377477 2.189435 1.3271845e-38
0.084143601 0.033661071 2.1699793 1.4746277e-38
0.083065741 0.076386645 2.169564 1.5300523e-38
0.08155416 0.12629656 2.1706631 1.5116129e-38
0.082419164 0.17346126 2.1683748 1.511577e-38
0.10252383 0.16813907 2.1530004 1.5115403e-38
0.082546748 0.22466373 2.1671598 1.4931736e-38
0.082018904 0.27370435 2.1697807 1.4746629e-38
0.10252382 0.26656196 2.1530001 1.4655509e-38
0.08506979 0.32659957 2.1752532 1.4470042e-38
0.10252383 0.33627814 2.1530004 1.4469682e-38
0.085079782 0.37372816 2.1674721 1.4376763e-38
0.10252382 0.39164096 2.1530001 1.4376403e-38
0.081511199 0.42432976 2.1707962 1.4100176e-38
0.10252382 0.40189338 2.1530001 1.4284563e-38
0.082793228 0.47457686 2.1690972 1.3823226e-38
0.084940538 0.52567041 2.1690629 1.3454803e-38
0.10252382 0.54337621 2.1530001 1.3270413e-38
0.081975088 0.57471251 2.1709149 1.3177857e-38
0.084849462 0.62634009 2.1712029 1.2809073e-38
0.10252383 0.64384955 2.1530004 1.2717231e-38
0.086163722 0.67311627 2.1716235 1.2532479e-38
0.10252382 0.66435432 2.1530001 1.2624671e-38
0.083093897 0.72395962 2.1733265 1.170199e-38
0.10252382 0.71561617 2.1530001 1.1060585e-38
0.087156311 0.77578694 2.1765065 1.1700191e-38
0.10347019 0.77665728 2.1530001 1.1608349e-38
0.086607508 0.82410902 2.1723421 1.1331044e-38
0.10252381 0.82839239 2.1530001 1.142252e-38
-0.61514294 0.89810866 2.1530004 8.37862e-39
-0.58083469 0.89276832 2.1560435 8.9321567e-39
-0.51196235 0.89657581 2.1811364 9.852664e-39
-0.48237303 0.89381409 2.1693683 1.012961e-38
-0.42274627 0.89436293 2.1739197 1.0405478e-38
-0.37485075 0.88865703 2.1692741 1.040548e-38
-0.32360175 0.89018279 2.1739655 1.0682425e-38
-0.27446109 0.89190841 2.1795282 1.068171e-38
-0.22276372 0.89487225 2.1753094 1.0036335e-38
-0.1780698 0.88830018 2.1685853 9.6664735e-39
-0.12659602 0.8853963 2.1720884 9.575717e-39
-0.075610586 0.89244616 2.1757112 9.7611803e-39
-0.030006668 0.89299709 2.17098 9.9430324e-39
0.028169876 0.89061671 2.1703167 9.5728079e-39
0.076951355 0.87648398 2.170048 8.9314168e-39
0.10289663 0.87163883 2.1530001 9.670428e-39
-0.61514294 0.90220964 2.1530004 8.1945902e-39
-0.52024615 0.9058128 2.1820557 9.6700594e-39
-0.45551619 0.90267432 2.194 1.0405843e-38
-0.44506854 0.90267426 2.194 1.0405482e-38
-0.066864759 0.90267426 2.194 1.0867531e-38
-0.010416667 0.90207714 2.1875 9.9426736e-39
0.0041666664 0.9020772 2.1875 9.942675e-39
-1.2908195 -0.87607366 2.2281497 1.2994178e-38
-1.2845819 -0.83954269 2.2219474 1.317857e-38
0.04406238 -0.77013397 2.2299998 1.3731392e-38
0.069826581 -0.76519042 2.2192407 1.2348808e-38
0.12347946 -0.76002717 2.220489 1.1334296e-38
0.17783867 -0.7622118 2.2215524 1.1150618e-38
0.22526328 -0.76450634 2.2230749 1.1241735e-38
0.27533498 -0.76384783 2.2210834 1.1241739e-38
0.32630035 -0.76206529 2.2211316 1.1242098e-38
0.37753782 -0.76250702 2.2236438 1.1056632e-38
0.40498859 -0.75931585 2.2167501 1.133321e-38
0.39074913 -0.72705102 2.2281961 1.1610883e-38
0.40430018 -0.72794193 2.2154999 1.1702354e-38
0.39427096 -0.67737931 2.2248333 1.1887107e-38
0.40655714 -0.67325807 2.2181611 1.1702716e-38
0.39416549 -0.64118016 2.2252221 1.2899101e-38
0.41028053 -0.63305962 2.2233636 1.4099086e-38
0.38928649 -0.57006699 2.2251623 1.1703796e-38
0.40697688 -0.57526124 2.2128 1.1334649e-38
0.39144501 -0.52865934 2.2248571 1.2255528e-38
0.40523198 -0.53039062 2.2100003 1.1980023e-38
0.046870477 -0.36857238 2.237 1.4562594e-38
0.062771767 -0.37064308 2.2242563 1.4378198e-38
0.123648 -0.3566446 2.2080002 1.2626836e-38
0.19901143 -0.3599143 2.223 1.24428e-38
0.22337458 -0.36754295 2.2160385 1.2442443e-38
0.27927536 -0.36570111 2.2196109 1.2533918e-38
0.31963435 -0.36800003 2.2080002 1.2441723e-38
0.3838633 -0.36239406 2.2226999 1.1611954e-38
0.41150147 -0.35876441 2.2097647 1.179564e-38
0.39660698 -0.3255851 2.2198999 1.2349526e-38
0.40708411 -0.32906094 2.2080002 1.2165137e-38
0.3929185 -0.27261144 2.2252254 1.3086379e-38
0.40735346 -0.27201968 2.2080002 1.2626117e-38
-1.2848709 -0.22234423 2.2369998 2.3234019e-38
-1.2132429 -0.24687713 2.2155004 2.2215901e-38
0.39341962 -0.22545192 2.2252543 1.3455877e-38
0.40957928 -0.22510132 2.2080002 1.3086376e-38
0.39327937 -0.1762291 2.228061 1.4009053e-38
0.40508425 -0.17219074 2.21175 1.3640269e-38
0.39144224 -0.12397919 2.2256434 1.4286004e-38
0.41107285 -0.12429363 2.2128112 1.3916493e-38
0.39025167 -0.076155022 2.2238238 1.4562952e-38
0.41134217 -0.082478747 2.2080002 1.3916853e-38
0.3903887 -0.026952151 2.2223387 1.4378924e-38
0.40716875 -0.022946266 2.2106972 1.3916501e-38
0.04183707 0.031856634 2.2310767 1.4469697e-38
0.061106071 0.031601794 2.2130001 1.4470773e-38
0.3834857 0 2.237 1.6219228e-38
0.042296313 0.075047255 2.2328377 1.5300884e-38
0.059622783 0.071322903 2.2131641 1.5300883e-38
0.043512858 0.1219207 2.2289999 1.5116493e-38
0.0590006 0.1243914 2.2130849 1.5207969e-38
0.04514825 0.17139354 2.2338886 1.5024298e-38
0.05774419 0.17570342 2.2146347 1.5024296e-38
0.044827014 0.22510833 2.2319088 1.5023576e-38
0.059220709 0.22625993 2.2131724 1.493174e-38
0.043804303 0.27006024 2.2321303 1.4838824e-38
0.057557285 0.27597749 2.2127728 1.4655153e-38
0.045144767 0.31657988 2.2219996 1.4562239e-38
0.05980555 0.32261717 2.2125969 1.4562238e-38
0.045400593 0.37512043 2.2299998 1.4285295e-38
0.060200986 0.37481344 2.2174032 1.4285291e-38
0.045319788 0.42937812 2.2307775 1.4008345e-38
0.058949243 0.42183378 2.216707 1.4100179e-38
0.043867428 0.47546974 2.2319596 1.3732113e-38
0.058490019 0.47421625 2.2136252 1.3731754e-38
0.043375045 0.51737952 2.2327998 1.3730673e-38
0.059847075 0.52451676 2.2155595 1.3454804e-38
0.046870477 0.56031519 2.237 1.3270057e-38
0.059372857 0.57137984 2.2174079 1.3270054e-38
0.046870477 0.6306209 2.237 1.2992752e-38
0.060843166 0.62634403 2.2184384 1.2809435e-38
0.046870474 0.67429566 2.2369998 1.2532846e-38
0.061637614 0.67539823 2.21789 1.2532127e-38
0.044357292 0.72745436 2.2347891 1.1425051e-38
0.059326585 0.72253895 2.2149172 1.1702353e-38
0.044907011 0.78666323 2.2357271 1.1608355e-38
0.060890734 0.77607262 2.2152827 1.1608717e-38
0.046870481 0.80531996 2.237 1.1516158e-38
0.061711401 0.82528841 2.2179391 1.1331408e-38
-0.5206877 0.89765066 2.2238748 1.0037059e-38
-0.41991639 0.89759892 2.2268569 1.0589503e-38
-0.37223575 0.89325428 2.2261209 1.0682067e-38
-0.32465187 0.89157176 2.2167027 1.0590228e-38
-0.27597287 0.89414239 2.2242219 1.1050494e-38
-0.22571394 0.89242131 2.219872 1.0129248e-38
-0.17193879 0.89231181 2.223026 9.6664693e-39
-0.12674434 0.886904 2.2219229 1.0312911e-38
-0.071165018 0.89224935 2.2194376 9.850485e-39
-0.028826524 0.89116931 2.2221427 9.6664511e-39
0.022895776 0.89505184 2.2240937 9.0207159e-39
0.058431692 0.86810857 2.2226665 9.3034573e-39
-0.55161273 0.90803051 2.2276669 8.5691139e-39
-0.53894389 0.90521497 2.2163808 9.3023629e-39
-0.47240877 0.90709722 2.2278798 1.0129607e-38
-0.44341177 0.90237588 2.2276666 1.0496953e-38
-0.39626858 0.90332186 2.237 1.1141954e-38
-0.062336005 0.90039885 2.2110002 1.0679518e-38
-0.01055 0.90096295 2.2154999 9.6657224e-39
0.0033702857 0.90077496 2.2140002 9.4809864e-39
-1.303821 -0.90129912 2.2970002 1.3177497e-38
-1.2714388 -0.90675575 2.2740903 1.2718314e-38
-1.2461785 -0.90848362 2.2796669 1.2901623e-38
-1.3068568 -0.8736015 2.2749133 1.3086016e-38
-1.2845211 -0.87835121 2.2748568 1.299418e-38
-1.2473791 -0.8977676 2.266 1.2810145e-38
-1.3086438 -0.82118273 2.2668502 1.3454801e-38
-1.2903024 -0.8264966 2.2821779 1.3362608e-38
-1.3171066 -0.77837545 2.2911465 1.3731395e-38
-1.2905486 -0.78170651 2.2843637 1.3731395e-38
0.030474262 -0.76863468 2.2828438 1.2717239e-38
0.074786387 -0.75871557 2.2709379 1.1519048e-38
0.1239111 -0.76099062 2.2714095 1.1242095e-38
0.1746487 -0.76072484 2.2735963 1.1058065e-38
0.2234475 -0.76147348 2.2703269 1.1149899e-38
0.27316728 -0.766469 2.2769287 1.1241376e-38
0.32651296 -0.76206243 2.2743704 1.1057345e-38
0.36330104 -0.75691557 2.2669342 1.1149182e-38
-1.314086 -0.72123611 2.2834604 1.4192379e-38
-1.2961969 -0.73567098 2.2849 1.4192016e-38
0.34564382 -0.73649848 2.2970002 1.1426492e-38
0.36665943 -0.72530764 2.2735631 1.170272e-38
-1.3169717 -0.68350917 2.2918925 1.4561161e-38
-1.2807903 -0.68015999 2.2942557 1.4561161e-38
0.34557229 -0.67180991 2.292429 1.1704153e-38
0.3696439 -0.67584997 2.2692339 1.1887469e-38
-1.3185381 -0.63202316 2.2969995 1.5021782e-38
-1.2871711 -0.62173086 2.2949483 1.5021786e-38
0.37759143 -0.6323573 2.2752185 1.2808346e-38
0.4035638 -0.6366381 2.266 1.5390531e-38
-1.3134251 -0.56806594 2.2851875 1.5299095e-38
-1.280388 -0.57872468 2.2937171 1.5299089e-38
-1.2341818 -0.55747831 2.2970004 1.5207617e-38
0.3428745 -0.56992537 2.289531 1.1704156e-38
0.36578995 -0.57531166 2.2697875 1.1888189e-38
-1.3094103 -0.52768737 2.2734861 1.5576041e-38
-1.2846224 -0.52961105 2.2791977 1.5667513e-38
-1.229442 -0.54471719 2.2970002 1.5391649e-38
0.33903241 -0.54023635 2.2938008 1.1797432e-38
0.369196 -0.52959532 2.2758915 1.2532118e-38
-1.3150346 -0.46912563 2.2894888 1.5944826e-38
-1.2750674 -0.47643274 2.2963717 1.5852988e-38
-1.2454909 -0.47579369 2.2916667 1.585227e-38
-1.3141762 -0.43512258 2.2897732 1.6221411e-38
-1.290092 -0.42628723 2.2916672 1.6221773e-38
-1.3146176 -0.37811109 2.2866566 1.6314692e-38
-1.2838578 -0.37231511 2.2827816 1.6406526e-38
-1.2048312 -0.37900501 2.2970002 1.6406523e-38
-1.1952976 -0.37320417 2.291667 1.6406523e-38
0.031638376 -0.37113804 2.2794805 1.4562592e-38
0.066581771 -0.36554036 2.2751434 1.3087456e-38
0.22951224 -0.36744943 2.2733183 1.2442084e-38
0.28643382 -0.36918241 2.2870002 1.244172e-38
0.33503202 -0.37050557 2.2884669 1.1980742e-38
0.36579892 -0.3600255 2.2716146 1.1795629e-38
-1.3078891 -0.32588214 2.2790945 1.6591277e-38
-1.2797197 -0.32616097 2.2844748 1.6591277e-38
-1.24038 -0.30189145 2.2970002 1.6776022e-38
0.34564382 -0.33689338 2.2970002 1.2258049e-38
0.37412959 -0.32568595 2.2700391 1.2441721e-38
-1.3061677 -0.264642 2.2759998 1.6777859e-38
-1.2825227 -0.28224313 2.2726619 1.6867507e-38
-1.2356339 -0.27928668 2.2818029 1.7236647e-38
0.36915109 -0.27627575 2.2722104 1.3087099e-38
-1.3060032 -0.2164977 2.2725713 1.7698356e-38
-1.281877 -0.22287335 2.2781808 2.1388676e-38
0.34564385 -0.22022033 2.2970004 1.3640993e-38
0.36715403 -0.22495335 2.2708931 1.3548439e-38
-1.3065503 -0.17683348 2.2757936 1.7327735e-38
-1.2804302 -0.17617418 2.2813475 1.7696162e-38
0.34170696 -0.16699138 2.2933872 1.4010139e-38
0.37006995 -0.17544942 2.2694592 1.4101613e-38
-1.3074608 -0.12559447 2.2761512 1.7330641e-38
-1.2848339 -0.12627617 2.2773139 1.6867867e-38
0.34612811 -0.12552905 2.293 1.4471113e-38
0.36698297 -0.12531431 2.2733641 1.4378921e-38
-1.3062515 -0.075794674 2.2785771 1.8159686e-38
-1.2861741 -0.078147687 2.2847261 1.8067853e-38
0.34455001 -0.091880009 2.2970002 1.4747344e-38
0.3660503 -0.074689992 2.272506 1.4747346e-38
-1.3116387 -0.037024923 2.28775 1.8436993e-38
-1.2861031 -0.03611251 2.2910938 1.8436993e-38
0.36848095 -0.027317995 2.2760117 1.4563677e-38
-1.3108425 0.021224605 2.286387 1.8806136e-38
-1.2997258 0.01930286 2.2520001 1.889761e-38
0.023201857 0.036232579 2.2768199 1.4654795e-38
0.37497908 0 2.276 1.576113e-38
-1.3099124 0.075251698 2.28477 1.9083083e-38
-1.2846833 0.089649513 2.28529 1.9082726e-38
0.022190999 0.076507382 2.2758183 1.5209049e-38
-1.3052803 0.12566018 2.2685003 1.7514673e-38
-1.2769369 0.11688547 2.2819841 1.7976737e-38
-1.2425678 0.10938096 2.2970004 1.8622466e-38
0.022051258 0.12676245 2.2809443 1.5116493e-38
0.02325782 0.17505413 2.2767463 1.5024298e-38
0.025705857 0.22429931 2.2765768 1.4839906e-38
0.025230968 0.27576169 2.2700832 1.474699e-38
0.027010269 0.32719857 2.2767482 1.4470762e-38
0.024583796 0.37486041 2.2719517 1.4285654e-38
0.025547938 0.42526022 2.2749104 1.4100901e-38
0.02568079 0.47515702 2.2698381 1.3824308e-38
0.026858691 0.52680439 2.2707906 1.3547005e-38
0.030888312 0.57471597 2.2693074 1.3270414e-38
0.051474288 0.58980954 2.2520001 1.2994187e-38
0.031007046 0.62620419 2.2712157 1.2993467e-38
0.051474281 0.62090862 2.2520001 1.3085303e-38
0.029348614 0.6732564 2.2710009 1.2533206e-38
0.025948215 0.72481251 2.2723742 1.1610161e-38
0.031520404 0.7724033 2.269053 1.1608715e-38
0.033187453 0.8271237 2.2737794 1.1423245e-38
0.051474288 0.84932578 2.2520001 1.132997e-38
-0.5546813 0.89791745 2.2810001 9.8533899e-39
-0.5240047 0.89901054 2.2776668 1.0222161e-38
-0.45064956 0.8969239 2.2970002 1.0681703e-38
-0.42947051 0.89662951 2.2796001 1.0682058e-38
-0.3744508 0.89472425 2.2711451 1.068206e-38
-0.32430661 0.89755845 2.2650433 1.1050486e-38
-0.27416903 0.895675 2.2733026 1.1235244e-38
-0.22611016 0.89603919 2.2741327 1.0590586e-38
-0.17595227 0.8931886 2.27075 1.0405099e-38
-0.12597694 0.88955867 2.2679296 1.0035955e-38
-0.075543299 0.89407176 2.2699614 9.3895083e-39
-0.023633193 0.89148772 2.2681057 9.1118382e-39
0.027120486 0.87982196 2.2689259 8.8395869e-39
0.051474284 0.86862862 2.2520001 1.0410161e-38
-0.56226808 0.90665889 2.2850456 9.8544563e-39
-0.52351588 0.9026981 2.2737594 1.0222161e-38
-0.47661668 0.90776235 2.2693646 1.0313991e-38
-0.42708391 0.90391099 2.2767324 1.0498028e-38
-0.37305686 0.9017787 2.2745001 1.0682416e-38
-0.32564718 0.90308899 2.2852857 1.0958654e-38
-0.26730669 0.90182227 2.2763336 1.1143413e-38
-0.23276269 0.90129912 2.2970002 1.0958287e-38
-0.1028181 0.90129912 2.2970002 9.5735394e-39
-0.088963181 0.90129918 2.2970004 9.1132829e-39
0.023833422 0.90126675 2.2570913 9.2036639e-39
-1.3056664 -0.9059543 2.3145003 1.3177494e-38
-1.2684057 -0.91041112 2.3207848 1.2901988e-38
-1.2281702 -0.91852558 2.3409221 1.2810151e-38
-1.3069531 -0.89152676 2.312 1.2993823e-38
-1.2716391 -0.8754738 2.3196769 1.3178216e-38
-1.2229834 -0.87476605 2.3413651 1.3178216e-38
-1.1967429 -0.86874676 2.3270001 1.3087093e-38
-1.2705739 -0.82441169 2.3167706 1.3546282e-38
-1.2286274 -0.82682759 2.3366983 1.3454804e-38
-1.1943134 -0.82046294 2.3396313 1.3454807e-38
-1.3350319 -0.77236044 2.3120003 1.3915432e-38
-1.2746627 -0.77381098 2.323596 1.3823592e-38
-1.2307878 -0.77572775 2.3365304 1.3915425e-38
-1.1784314 -0.76801926 2.3385208 1.4006906e-38
-0.010610116 -0.77021515 2.3396893 1.3454447e-38
0.020133058 -0.76358682 2.3264401 1.1980387e-38
0.074128307 -0.75825238 2.3263543 1.1150982e-38
0.12653919 -0.7603007 2.3254478 1.1058069e-38
0.17382853 -0.75754297 2.3292053 1.0966231e-38
0.22491513 -0.76023853 2.3309577 1.0966231e-38
0.27527425 -0.76051003 2.3278484 1.0965511e-38
0.32074663 -0.76008838 2.3261745 1.0781118e-38
-1.3082659 -0.71655768 2.3132501 1.4468245e-38
-1.274317 -0.72578192 2.3228512 1.4284213e-38
-1.2288393 -0.72499579 2.340121 1.4284213e-38
-1.1798005 -0.73063922 2.3407552 1.4192016e-38
0.022290584 -0.74968368 2.3412225 1.0597813e-38
0.13834858 -0.74976003 2.3430002 1.0690366e-38
0.19190288 -0.74976003 2.3430002 1.0965868e-38
0.20529144 -0.74976003 2.3430002 1.1056993e-38
0.27669716 -0.74976003 2.3430002 1.1056981e-38
0.33306804 -0.72641188 2.3273602 1.1426492e-38
-1.3229265 -0.6662696 2.312681 1.4745554e-38
-1.2689426 -0.66995424 2.3180828 1.4744835e-38
-1.2262313 -0.67342502 2.3278651 1.4653e-38
-1.1826572 -0.68409234 2.3430002 1.4560444e-38
0.29901147 -0.66719717 2.3430002 1.2528166e-38
0.33009192 -0.673374 2.3349056 1.1242461e-38
0.35230476 -0.65396571 2.312 1.1979668e-38
-1.3224853 -0.61632657 2.3154082 1.5206173e-38
-1.2718893 -0.62805086 2.3157122 1.5022142e-38
-1.2313836 -0.62197727 2.3349504 1.5113976e-38
-1.1847649 -0.61354637 2.3386919 1.5205815e-38
0.33844033 -0.63905346 2.3370624 1.0968388e-38
0.36506361 -0.6339668 2.3306386 1.2902706e-38
-1.3226273 -0.58907622 2.3138747 1.5207259e-38
-1.2682915 -0.57117033 2.3131268 1.5391286e-38
-1.2252458 -0.57715315 2.3264616 1.5299089e-38
-1.1886547 -0.58695656 2.331826 1.5298372e-38
-1.11696 -0.58950669 2.3270001 1.5481683e-38
0.33134082 -0.55717379 2.3170002 1.0967673e-38
-1.3567086 -0.51769149 2.3430002 1.5760083e-38
-1.3258263 -0.51093864 2.3189189 1.5851914e-38
-1.2724304 -0.52409989 2.3269372 1.5576399e-38
-1.228507 -0.5254302 2.3338299 1.5667875e-38
-1.1870244 -0.51528364 2.3310537 1.5576041e-38
0.2979905 -0.54037809 2.335 1.2532471e-38
0.32705152 -0.52294034 2.3327885 1.1980021e-38
0.35883728 -0.51359558 2.3154092 1.3454428e-38
-1.3129272 -0.47848767 2.316282 1.5944466e-38
-1.2739017 -0.47081828 2.3185666 1.5944826e-38
-1.2344073 -0.47628543 2.332824 1.5944466e-38
-1.1865507 -0.49033678 2.333545 1.5852266e-38
-0.017851429 -0.45074859 2.3430002 1.843197e-38
0.29901147 -0.49537718 2.3430002 1.3725253e-38
0.31574717 -0.49872431 2.3430002 1.4279875e-38
-1.3230993 -0.42369992 2.3144641 1.6221416e-38
-1.2724773 -0.42546099 2.320806 1.6313251e-38
-1.220201 -0.42372414 2.3292537 1.6221773e-38
-1.1767207 -0.41673031 2.339889 1.6221773e-38
-1.139122 -0.43215716 2.3270001 1.5945905e-38
-0.018223336 -0.43996334 2.3430004 1.8344412e-38
0.040165719 -0.40165716 2.3430002 1.6591618e-38
-1.3270147 -0.39487493 2.312 1.6498719e-38
-1.2682102 -0.37453657 2.3233089 1.6406527e-38
-1.2254803 -0.37964574 2.3269179 1.6406526e-38
-1.1927503 -0.38065767 2.3318386 1.6314332e-38
-0.0073505891 -0.37461746 2.3429999 1.5760426e-38
0.01914598 -0.36941272 2.3303938 1.3917584e-38
0.072854891 -0.36554933 2.3365452 1.2442806e-38
0.18358608 -0.36624107 2.3350625 1.2350603e-38
0.23763087 -0.36640605 2.3355262 1.2258052e-38
0.27244797 -0.37037277 2.3318787 1.2258049e-38
0.32769862 -0.36381894 2.324095 1.1796348e-38
0.35230476 -0.35230476 2.312 1.2256599e-38
-1.3131125 -0.33520761 2.312 1.6590923e-38
-1.2633216 -0.32532799 2.3194749 1.6683115e-38
-1.2303448 -0.32923523 2.3346996 1.6683115e-38
0.33512396 -0.32490045 2.3338168 1.2258047e-38
0.35222498 -0.32005161 2.3184285 1.244208e-38
-1.3103397 -0.25463212 2.3162858 1.456195e-38
-1.2822522 -0.26903999 2.3166652 1.7234857e-38
-1.2264624 -0.27393031 2.334739 1.7052257e-38
-0.017293572 -0.26963097 2.3429995 1.8161118e-38
0.33880714 -0.27748623 2.3325591 1.3087098e-38
0.35281712 -0.27485526 2.3131542 1.3179293e-38
-1.3088121 -0.2430903 2.312 1.8240364e-38
-1.2666527 -0.22867493 2.3257494 1.8064975e-38
-1.2280104 -0.22292693 2.3312674 1.723773e-38
-0.012982859 -0.21786857 2.3430004 1.9451497e-38
0.33394611 -0.2237822 2.3320708 1.3548796e-38
0.35087365 -0.24032128 2.322 1.3456243e-38
-1.2660807 -0.17889576 2.328146 1.6589831e-38
-1.229545 -0.17966756 2.328872 1.7514318e-38
-1.1811509 -0.16019355 2.3366001 1.7606874e-38
-0.0066942861 -0.18297717 2.3430004 1.9542971e-38
0.0017851429 -0.18208459 2.3430002 1.9358941e-38
0.32987764 -0.176533 2.3280616 1.400942e-38
0.35341495 -0.18956381 2.3145003 1.3826105e-38
-1.2729698 -0.12430785 2.3250637 1.7606155e-38
-1.2294346 -0.12740089 2.3357782 1.7883102e-38
-1.1831125 -0.13684176 2.3405387 1.7883099e-38
-0.012942287 -0.12138971 2.3429997 1.9083074e-38
0.3337135 -0.12518655 2.3303115 1.4378921e-38
0.35203639 -0.12726 2.3138752 1.4378562e-38
-1.305555 -0.070953064 2.3184288 1.8068569e-38
-1.2726302 -0.074904427 2.319185 1.8160408e-38
-1.2369431 -0.072359823 2.3310456 1.8252245e-38
-0.0069422228 -0.073141277 2.3429997 1.9912109e-38
0.0065226373 -0.072950557 2.3429995 1.9727362e-38
0.33084768 -0.074838251 2.3309677 1.4747706e-38
0.35152414 -0.06419827 2.3174546 1.4748064e-38
-1.3181343 -0.016443884 2.3143067 1.8621024e-38
-1.2734898 -0.025286762 2.3223176 1.852919e-38
-1.2324533 -0.027413195 2.3349612 1.8621027e-38
-0.01064934 -0.032513056 2.3414512 1.9729516e-38
0.0035330956 -0.027520955 2.3429995 1.8894366e-38
0.3350822 -0.02853315 2.3318415 1.4564038e-38
0.35492486 -0.013485603 2.3172941 1.4562601e-38
-1.3105737 0.027771525 2.3130455 1.8990168e-38
-1.2760023 0.024505973 2.3199878 1.8897974e-38
-1.224049 0.024283826 2.3347788 1.8990168e-38
-1.1839347 0.010900177 2.3406291 1.8806137e-38
-0.016836805 0.028175984 2.3404202 1.5946264e-38
0.0088621592 0.023955911 2.3269265 1.6040266e-38
0.34572574 0 2.3270001 1.5944805e-38
0.35902286 0 2.3270001 1.6219946e-38
-1.3120446 0.062632084 2.3171926 1.908308e-38
-1.2704328 0.071698479 2.3147004 1.9082724e-38
-1.2287246 0.074994549 2.3312836 1.9082726e-38
-1.172533 0.090501457 2.3402169 1.8990531e-38
-0.011385441 0.075137712 2.3358898 1.5670389e-38
0.0038956781 0.07064227 2.3177693 1.520905e-38
-1.3031543 0.13834858 2.3430002 1.7421401e-38
-1.2665284 0.12434789 2.3217776 1.7791627e-38
-1.2246578 0.11439544 2.3297858 1.8345161e-38
-1.1779528 0.10757481 2.3380766 1.880614e-38
-0.010075289 0.12554863 2.3341584 1.5577473e-38
0.0018542357 0.12221674 2.3175263 1.5024663e-38
-1.0086058 0.15173715 2.3430002 1.815932e-38
-0.012429687 0.17373581 2.3331141 1.5485274e-38
0.0011743492 0.17880206 2.3160002 1.502394e-38
-0.011998758 0.22505766 2.3354909 1.5484913e-38
0.0044076191 0.22767359 2.3180001 1.4931746e-38
-0.01185309 0.27653414 2.3368733 1.5300524e-38
0.003973905 0.27412564 2.3225002 1.4747351e-38
-0.014339501 0.3256734 2.3341196 1.5023224e-38
0.0037993426 0.32264614 2.3161378 1.4470765e-38
-0.01343012 0.3747586 2.3337808 1.4654799e-38
0.0020030304 0.37286219 2.3167729 1.4286016e-38
-0.014320409 0.42275876 2.3358583 1.4468973e-38
0.0023013665 0.42547849 2.3204782 1.4100901e-38
-0.011295071 0.47309864 2.3387339 1.4192739e-38
0.0041206987 0.47515556 2.3225672 1.3824315e-38
-0.009432829 0.52708822 2.336412 1.4007263e-38
0.0044157146 0.52419567 2.3224449 1.3639205e-38
-0.0090544894 0.57365859 2.339606 1.3822512e-38
0.0066827345 0.57754618 2.3232057 1.3270777e-38
-0.010565115 0.63032973 2.3408949 1.3269697e-38
0.00672265 0.62139761 2.324218 1.3086026e-38
-0.010174227 0.67024511 2.3399999 1.2993108e-38
0.0054914863 0.67874587 2.3258183 1.2533568e-38
-0.012652746 0.7252447 2.3400917 1.1610523e-38
0.0046678986 0.71974164 2.3190589 1.1794916e-38
-0.010010452 0.77591485 2.3425677 1.160908e-38
0.0072436142 0.77802861 2.3228462 1.1609077e-38
-0.010297339 0.82636309 2.3421798 1.1332134e-38
0.0084510269 0.82461983 2.3258603 1.1423967e-38
-0.56306696 0.89847577 2.3170002 1.0037776e-38
-0.53739655 0.89737439 2.3221111 1.0129968e-38
-0.45653528 0.89977342 2.3270001 1.0315072e-38
-0.42736003 0.89897078 2.3231578 1.0866815e-38
-0.37060824 0.89712191 2.3248966 1.105084e-38
-0.32507175 0.89896345 2.3220835 1.0774978e-38
-0.26789606 0.89609879 2.3253219 1.105085e-38
-0.22439434 0.89373386 2.3251231 1.0405829e-38
-0.17612894 0.88946915 2.3259852 1.0036678e-38
-0.12430958 0.8949188 2.3229516 1.0312898e-38
-0.074010812 0.89610189 2.3285632 9.759004e-39
-0.020631976 0.88770354 2.3332767 9.2987574e-39
0.0080824429 0.87404883 2.3231137 9.5793239e-39
-0.56295598 0.90384543 2.3182001 9.8537472e-39
-0.51807797 0.90457517 2.32337 1.0038494e-38
-0.47824985 0.90711844 2.3240774 1.0589865e-38
-0.42156479 0.9031862 2.3274188 1.0866453e-38
-0.38618907 0.90281624 2.3235002 1.1049761e-38
-0.32483506 0.90346086 2.3278527 1.0774979e-38
-0.29468498 0.90318835 2.3336 1.105121e-38
-0.22239238 0.90278101 2.312 1.0682053e-38
-0.10569143 0.90278101 2.312 9.9437526e-39
-1.2106287 -0.95040005 2.3760002 1.2533923e-38
-1.1765792 -0.95426279 2.3906081 1.2717594e-38
-1.1367695 -0.95224386 2.3920002 1.2810148e-38
-1.2599307 -0.92832267 2.3590007 1.2810509e-38
-1.2140529 -0.92102641 2.3678999 1.2993462e-38
-1.1763585 -0.92428881 2.382844 1.2993464e-38
-1.1365799 -0.91873705 2.391999 1.2993466e-38
-1.096903 -0.94427055 2.3920002 1.2992748e-38
-0.0501181 -0.92581797 2.3920002 1.2533565e-38
-0.02519365 -0.92071551 2.3848338 1.4469312e-38
0.014374457 -0.92253232 2.3919988 1.5022847e-38
-1.2587445 -0.8818801 2.3605464 1.3178573e-38
-1.2183517 -0.87772268 2.3677902 1.3178573e-38
-1.1774597 -0.87185025 2.3825297 1.3361888e-38
-1.1320238 -0.87833226 2.3919988 1.3361888e-38
-0.0501181 -0.85884196 2.3920002 1.3085294e-38
-0.024623703 -0.87492943 2.3832169 1.4929933e-38
0.010899124 -0.87076831 2.391999 1.5760054e-38
-1.2277309 -0.81997567 2.3648703 1.3638479e-38
-1.1768068 -0.82550591 2.3785579 1.3638118e-38
-1.1239899 -0.82178557 2.3848553 1.3546282e-38
-1.0997486 -0.80557722 2.3760002 1.3822145e-38
